# .PCD v0.7 - Point Cloud Data file format
VERSION 0.7
FIELDS x y z intensity
SIZE 4 4 4 4
TYPE F F F F
COUNT 1 1 1 1
WIDTH 1347
HEIGHT 1
VIEWPOINT 0 0 0 1 0 0 0
POINTS 1347
DATA ascii
6.8355227 6.9847379 -36.658451 12
6.7166233 7.0015936 -36.669556 12
7.6607199 7.0316758 -36.760574 12
9.5348921 7.1146388 -36.79274 12
4.9018669 8.2277718 -36.659943 13
6.5801954 8.3076725 -36.743782 13
5.7341719 8.4320955 -36.671326 13
6.8322153 9.6823187 -36.65873 14
6.7282047 9.8681965 -36.669388 14
5.5745215 1.7368232 -36.536095 8
6.2178817 1.8178482 -36.435581 8
4.3367739 3.0319281 -36.587471 9
6.9080439 4.3384781 -36.598854 10
3.5649889 5.5757766 -36.546013 11
1.237895 4.2997732 -36.398952 10
0.57992363 5.5608668 -36.392879 11
-2.4713066 6.7851639 -36.244041 12
-2.7705231 6.8043733 -36.235622 12
-2.3849478 6.9422617 -36.280041 12
-3.4741249 8.0600891 -36.209969 13
-1.9567242 8.1077909 -36.297668 13
-2.2300429 8.654665 -36.246937 13
-3.522891 5.5524607 -36.198471 11
-2.189445 5.8837008 -36.199345 11
-3.9732394 10.004453 -36.032509 14
-4.327075 10.711968 -35.891983 14
5.798502 1.645496 -33.730297 8
5.8422461 1.625792 -33.744759 8
6.1581354 2.7721925 -33.628746 9
5.8170795 2.8030558 -33.721249 9
3.2611551 1.6565951 -33.555317 8
4.333456 1.6473508 -33.566975 8
3.2811346 2.7852554 -33.552692 9
4.3588295 2.7873206 -33.583035 9
-0.12539959 5.1267357 -33.194962 11
0.80405831 1.5746547 -31.21414 8
0.90342259 6.8896589 -31.246231 13
0.74839878 1.4540715 -31.194889 8
1.1395271 1.4621345 -31.086632 8
1.1174817 2.5639243 -31.117903 9
0.82135606 2.6044891 -31.198111 9
0.93917918 3.6776731 -31.14695 10
1.203166 3.6867607 -31.102299 10
0.94885659 4.6978679 -31.157864 11
1.0160379 4.7517152 -31.121208 11
1.066406 5.7688532 -31.184669 12
1.0632973 5.8775315 -31.190693 12
0.29848593 7.3213887 -31.171726 13
0.82592416 7.6338272 -30.959068 13
-2.6897898 4.8139806 -30.620346 11
-2.5870957 4.8290753 -30.606514 11
-2.5584831 5.9084964 -30.603334 12
0.58478087 8.6566582 -30.679731 14
-2.0284948 3.5953791 -30.484295 10
-2.4191289 4.7930665 -30.516777 11
-2.0568109 4.7763414 -30.510458 11
-1.6982536 4.8402209 -30.477325 11
-2.288394 5.6821241 -30.539543 12
-2.573267 5.9065137 -30.576113 12
-1.9917811 6.9352188 -30.545204 13
-1.9937587 7.3863668 -30.421452 13
-2.4190586 8.5206366 -30.432531 14
-1.7349405 3.6792397 -30.396671 10
-2.3564384 6.925221 -30.306492 12
-2.7038982 9.1954556 -30.297392 14
-7.4027452 5.6800876 -29.811382 12
-7.2882938 6.7496996 -29.815094 13
-9.4389887 2.6702726 -29.68906 9
-9.4180117 3.6965823 -29.707865 10
-9.6530914 4.7003794 -29.624628 11
-9.4783974 4.6993971 -29.648296 11
-9.1747618 4.7366533 -29.634083 11
-9.6296692 5.6951532 -29.62018 12
-9.4596424 5.7192721 -29.6826 12
-9.3717861 5.7157679 -29.673037 12
-9.1628561 5.7565393 -29.665846 12
-9.6211014 6.7578278 -29.684725 13
-8.9839611 6.7475662 -29.679367 13
-10.696284 6.8344164 -29.603697 13
-9.6581478 6.821321 -29.66555 13
-9.1459589 7.766089 -29.658123 14
-9.7050333 7.9136934 -29.641829 14
-9.3566055 7.8784347 -29.683407 14
-11.197456 2.7382002 -29.556208 9
-10.795193 3.7622197 -29.54878 10
-4.7753448 4.4893131 -29.502941 11
-10.648708 4.7497635 -29.585087 11
-12.564869 4.8639164 -29.504345 11
-11.465569 4.8548393 -29.521946 11
-4.4932775 5.4781046 -29.534416 12
-11.740425 5.8684893 -29.545439 12
-12.195924 6.998311 -29.516699 13
-11.557934 6.9635015 -29.578238 13
-9.8581781 7.7970023 -29.592503 14
-11.80122 8.0424776 -29.543489 14
-16.147717 5.0820055 -29.270164 11
-16.332909 6.1631856 -29.29298 12
-14.868058 7.1348386 -29.384691 13
-16.018871 7.2393804 -29.317551 13
-14.454131 8.1735592 -29.373917 14
-15.980231 8.3227568 -29.275816 14
-7.0338311 1.5946364 -28.546173 8
-3.826324 2.3902943 -27.943068 9
-4.0226722 3.3542204 -27.464708 10
-3.8534408 3.3681679 -27.519424 10
-5.606822 5.1949468 -27.476206 12
-10.059187 -1.1270211 -27.25176 6
-5.3288574 1.4403399 -27.323769 8
-4.971097 1.4421382 -27.296278 8
-5.2958832 2.3096626 -27.245115 9
-2.5390892 2.2988424 -27.310585 9
-5.2535272 3.2684264 -27.208935 10
-5.6652522 4.3446541 -27.31407 11
-5.6331925 5.3252587 -27.34429 12
-5.3422728 6.1036878 -27.224518 13
-14.302777 -1.058145 -27.051847 6
-5.3351002 3.1516604 -27.175224 10
-5.1691227 3.2509911 -27.141346 10
-5.1403112 4.1539168 -27.089855 11
-5.1510353 5.0836592 -27.143017 12
-5.1670051 6.195365 -27.098646 13
-5.3572383 6.2911367 -27.155621 13
-4.8154941 6.428493 -27.162395 13
-5.3014703 7.3214421 -27.189816 14
-5.1670895 7.2153392 -27.085068 14
-5.2875977 4.2250786 -26.982992 11
-5.4220052 7.1359725 -26.928623 13
-5.483068 8.1495857 -26.876747 14
-7.2597294 2.2477484 -26.717718 9
-7.0664606 2.3214834 -26.322803 9
-7.0935202 3.1202383 -26.343245 10
-6.89011 3.2174444 -26.335192 10
-7.1421394 4.9225264 -26.107727 11
-20.089571 4.0346241 -25.991163 10
-19.1989 0.87472618 -25.760826 7
-19.080227 1.7897196 -25.657326 8
-19.016029 1.8651197 -25.665598 8
-18.903038 1.8649731 -25.696945 8
6.9462423 4.0517654 -25.775873 11
7.0098152 4.9457335 -25.629166 12
7.0159388 5.0034633 -25.680342 12
-19.104172 1.7924806 -25.592491 8
-20.397894 2.0296187 -25.54488 8
6.9485006 1.1590512 -25.359095 8
6.9675093 2.0829074 -25.353563 9
-18.636379 2.7708418 -25.244429 9
7.0127306 3.0309207 -25.215395 10
-18.616289 3.7476993 -25.236322 10
6.9647684 3.9391165 -25.193867 11
-18.488411 4.8106403 -25.176178 11
6.9734917 1.170903 -24.937759 8
6.9756145 2.0600359 -24.917833 9
7.0165157 4.7863097 -24.84738 12
6.9776201 1.1559618 -24.558437 8
7.004962 2.9367435 -24.538836 10
7.0887785 5.6432815 -24.412306 13
6.964097 2.0079875 -24.309753 9
6.9821758 3.7901134 -24.270678 11
6.8795843 -1.4636705 -24.041367 6
6.9826689 1.0313804 -24.005682 8
7.022006 4.6584864 -24.018196 12
7.0982847 5.6120129 -24.130814 13
7.0230551 1.1127183 -23.810152 8
6.9614811 1.9563457 -23.931065 9
6.9973764 2.8671575 -23.865635 10
6.9898596 3.7636762 -23.989201 11
6.9473772 3.8569558 -23.826262 11
-20.514692 1.8198578 -23.61758 8
6.9878263 1.9607103 -23.711178 9
-20.686659 1.7034506 -23.486628 8
7.0251923 4.8739843 -23.391062 12
7.1398048 5.4099717 -23.294081 13
7.0272255 1.9042071 -23.049255 9
7.0506773 2.7674637 -23.059914 10
7.0609827 3.613694 -23.045782 11
7.06917 4.4926138 -23.192949 12
7.0337191 0.23918544 -22.800024 7
7.0591908 1.0736108 -22.979429 8
7.1463413 5.3915191 -22.860849 13
7.1709013 5.4428916 -22.904892 13
7.0582008 4.4671082 -22.740374 12
7.1507444 5.3305516 -22.762457 13
7.085206 1.0451616 -22.483959 8
-17.857224 1.7113843 -22.449999 8
7.0576782 1.8557087 -22.40642 9
7.07335 3.5742481 -22.521084 11
7.0980005 4.4316158 -22.531265 12
6.9820452 -1.3937862 -22.235811 6
-17.704912 2.5478718 -22.240765 9
7.070776 2.7111425 -22.397739 10
-17.902496 1.6181465 -22.068792 8
-17.679987 2.5351551 -22.069439 9
7.0636921 2.7443109 -22.191536 10
7.1198254 1.0118533 -21.926205 8
7.189064 5.1027265 -21.807089 13
7.0794153 0.98328686 -21.63781 8
7.1045198 1.8013448 -21.779005 9
7.1108866 2.6047139 -21.610813 10
-17.380253 3.4361098 -21.667414 10
7.1318779 3.4317021 -21.766798 11
7.1422415 4.2433801 -21.754778 12
7.2053385 5.1088982 -21.662363 13
7.2211752 5.2019091 -21.685728 13
7.0994263 0.92401099 -21.59437 8
7.1281099 1.0004692 -21.554325 8
7.0902815 1.7871311 -21.553598 9
7.0536385 1.8597599 -21.568567 9
7.0969515 2.7158318 -21.494389 10
7.0974216 3.5530541 -21.49243 11
7.1720963 4.3839431 -21.431517 12
7.101881 4.5552835 -21.40064 12
7.2208471 5.1274371 -21.524975 13
7.2482958 5.3036628 -21.505968 13
7.0984592 0.20889778 -21.38438 7
7.3642678 0.93637341 -21.364553 8
-21.093754 2.7447546 -21.389978 9
7.1528106 3.4594197 -21.267235 11
7.0347195 3.6427395 -21.334499 11
7.3305917 3.7549481 -21.213886 11
-16.601614 3.9341767 -21.209972 11
-17.971188 4.1000657 -21.334223 11
7.1578827 4.2649536 -21.344492 12
-16.77544 4.7951689 -21.381662 12
7.2194338 5.193305 -21.336308 13
-16.688257 5.6093817 -21.258404 13
7.1561484 0.963516 -21.072588 8
-21.080105 1.3059459 -21.014065 8
7.123765 1.7490544 -21.092609 9
7.3324552 1.8470396 -21.132889 9
7.1330986 2.5784588 -21.096104 10
-20.893373 2.6236417 -21.036877 9
7.3477178 2.8036585 -21.121819 10
7.1538591 3.3760037 -21.134602 11
7.130559 3.4342134 -21.131145 11
-20.784176 3.6331711 -21.171957 10
7.1614609 4.1804028 -21.120415 12
7.1475668 4.2737455 -21.126116 12
-20.629528 4.5079265 -21.006399 11
7.3320985 4.697186 -21.182632 12
7.2188768 5.7829347 -21.110973 14
7.1350117 1.7468523 -20.952692 9
-17.791275 4.8526244 -20.949074 12
-17.689568 5.669486 -20.815865 13
7.0826931 -1.3404748 -20.797792 6
7.1424837 0.13047393 -20.542761 7
-20.918823 2.6829679 -20.449348 9
7.1726141 3.2430782 -20.430428 11
7.1930199 4.018157 -20.437429 12
-20.463186 4.5586562 -20.583057 11
7.2258434 4.8985362 -20.479431 13
7.2390127 5.6771717 -20.459297 14
7.1339636 -1.3436249 -20.207611 6
7.1632795 0.18485343 -20.254837 7
7.18501 0.9420926 -20.398205 8
7.4055982 0.89157987 -20.253181 8
-21.051022 1.7566735 -20.204914 8
7.1626101 1.6858951 -20.334444 9
7.1668844 2.4617755 -20.314137 10
7.3698049 3.6345472 -20.252911 11
7.3895116 4.555284 -20.250156 12
7.238461 4.8588843 -20.290735 13
-20.341877 5.4537897 -20.376982 12
-20.182323 5.4711914 -20.281572 12
7.2230206 -0.58075696 -20.047422 7
-18.307261 1.6231722 -20.084505 8
7.1737604 1.6663538 -20.035254 9
7.3742986 1.7823068 -20.179068 9
-18.074821 2.4276416 -20.175297 9
7.1817942 2.4667437 -20.018694 10
7.3786817 2.7097673 -20.154232 10
7.1972971 3.2549517 -20.013548 11
-20.622555 3.5522614 -20.148914 10
-18.100933 3.4380569 -20.081734 10
7.2113714 4.0470181 -20.006153 12
-17.903069 5.0684156 -20.078037 12
7.2979193 5.6497602 -20.048359 14
-18.404335 0.72963512 -19.814379 7
7.1736593 0.85391963 -19.966269 8
7.2107406 0.90221238 -19.905542 8
7.1673255 1.6589447 -19.865593 9
7.185461 2.4643517 -19.8627 10
7.187748 3.2759485 -19.923965 11
7.2024269 3.2169316 -19.858101 11
7.2132177 3.968462 -19.956045 12
-18.139938 4.0682397 -19.875872 11
7.2142787 4.0968461 -19.938766 12
-17.668949 4.3606496 -19.842234 11
-20.169231 6.0947943 -19.909925 13
-20.156475 6.3267031 -19.95223 13
7.1608553 -1.302408 -19.739151 6
7.1798344 0.88632739 -19.75572 8
7.2135334 0.91186839 -19.798794 8
-18.312077 1.5750374 -19.723923 8
7.1664505 1.6917412 -19.722435 9
7.151967 2.5872543 -19.663246 10
7.1511707 3.4302008 -19.635075 11
-17.829084 4.3470502 -19.715332 11
7.1744785 4.2825403 -19.638788 12
-20.440145 4.5120239 -19.746805 11
7.2426434 4.8810911 -19.708084 13
7.2638988 5.0318012 -19.695051 13
7.2940493 5.630487 -19.701536 14
-19.944544 6.906805 -19.670492 14
-20.719807 2.3248694 -19.478868 9
-18.107882 2.3707709 -19.492836 9
7.2297525 5.1334 -19.434261 13
7.3022337 5.391551 -19.404806 14
-20.236687 5.4105115 -19.544203 12
7.2720642 -0.55982506 -19.370657 7
-18.359415 1.5190099 -19.384626 8
7.2316227 3.0806398 -19.247625 11
-20.543568 3.3179765 -19.316231 10
7.2494488 3.8407943 -19.373465 12
-17.534042 4.7443895 -19.270075 12
7.25914 4.6098766 -19.36278 13
7.2989082 5.646822 -19.399624 14
7.3106008 0.85758483 -19.064014 8
7.6133804 0.87726355 -19.147121 8
7.2447519 1.597465 -19.195574 9
7.2542553 1.6024579 -19.027538 9
7.5803862 1.6953591 -19.081181 9
7.2283001 2.3358531 -19.145258 10
7.5937529 2.5493343 -19.072159 10
-18.003935 3.1211152 -19.001745 10
-17.952524 3.1454108 -19.197533 10
7.248003 3.1247218 -19.014137 11
-20.408516 4.2862744 -19.194708 11
7.292716 4.7381105 -19.103315 13
7.3537035 5.4332428 -19.053686 14
-17.049397 5.6296253 -19.116385 13
-21.21899 0.82038742 -18.990881 7
7.2558603 0.84157848 -18.871305 8
7.4481874 0.82204044 -18.994217 8
7.2543192 1.578705 -18.845243 9
-21.036108 1.6683829 -18.820299 8
7.4366899 1.6575485 -18.951473 9
7.2443171 2.3545539 -18.919941 10
7.4278102 2.5242763 -18.910643 10
7.4382739 3.3774009 -18.894489 11
7.6045837 3.3732555 -18.941 11
7.2873535 3.8800402 -18.876362 12
7.4582114 4.2364712 -18.889885 12
7.6288261 4.2162046 -18.946045 12
7.3120556 4.6211038 -18.90427 13
7.5122619 5.1396232 -18.926001 13
-17.445255 5.5315909 -18.951387 13
-17.212538 5.4133363 -18.974333 13
7.3548288 5.47539 -18.966745 14
-16.916142 6.1345782 -18.826082 14
7.2421598 -1.2643101 -18.650558 6
7.263299 0.13081613 -18.628359 7
7.2660532 0.84109163 -18.713596 8
7.2507925 1.578142 -18.772152 9
7.256485 2.3477497 -18.767797 10
-20.865463 2.4962962 -18.661459 9
7.272624 3.0769305 -18.780903 11
7.3737097 5.2333679 -18.680037 14
-17.251701 6.2947397 -18.734268 14
-16.899298 6.237114 -18.714069 14
7.380291 0.78829491 -18.436846 8
7.4199562 0.78150511 -18.582502 8
7.4142132 1.6010144 -18.543661 9
7.2807741 2.2581441 -18.405218 10
7.4179106 2.4525473 -18.514807 10
7.2924356 2.9676268 -18.400194 11
-20.700171 3.3452802 -18.508329 10
7.4256945 3.2885804 -18.491638 11
-17.239435 3.7878087 -18.512047 11
7.3344421 3.6910663 -18.439995 12
7.4434929 4.1300101 -18.480398 12
7.3398628 4.4539552 -18.53829 13
7.4964762 5.0144453 -18.510027 13
7.3282137 -0.5517987 -18.286865 7
7.2489624 0.061859921 -18.370731 7
7.471127 0.79398835 -18.304104 8
7.3083105 1.533553 -18.355555 9
7.4467525 4.9551492 -18.385059 13
7.3873987 5.3435683 -18.343439 14
7.30058 0.82608753 -18.036974 8
7.4032297 1.5755876 -18.104935 9
7.4747691 1.605498 -18.165375 9
7.3946972 2.4045825 -18.068272 10
7.4786038 2.4535141 -18.1422 10
7.4418273 3.2802 -18.024813 11
7.3293705 3.7945993 -18.032707 12
-17.685024 3.8849585 -18.021568 11
7.4302464 4.0436988 -18.056934 12
7.5096712 4.2081361 -18.119726 12
7.3556395 4.5456553 -18.169119 13
7.3969803 5.2090435 -18.009071 14
7.3563299 -0.58925086 -17.957306 7
7.3167658 1.5238355 -17.853745 9
7.3076458 2.3055766 -17.922777 10
7.4841394 2.4887021 -17.909113 10
7.3181906 2.9730477 -17.967754 11
7.3035059 3.0108907 -17.811468 11
7.3477402 3.683408 -17.881046 12
7.3848114 5.3458128 -17.947657 14
7.4185123 5.445715 -17.948172 14
7.4612246 5.6978941 -17.811756 14
7.3009624 -1.2284923 -17.624462 6
7.3104758 0.77636945 -17.720711 8
7.3269072 0.81308532 -17.723185 8
7.5020218 0.80336225 -17.74581 8
7.3252459 1.5039027 -17.688011 9
7.4984589 1.6203371 -17.717339 9
7.2988591 2.2454526 -17.737961 10
7.5510387 5.0385189 -17.795218 13
7.2416964 -1.8829629 -17.258217 5
7.3336115 -1.2765737 -17.243191 6
7.3783035 -0.54551029 -17.384861 7
7.3654861 3.5052962 -17.293896 12
7.3638124 4.2103934 -17.276211 13
7.3857126 4.9203491 -17.285358 14
7.571867 5.6313124 -17.218683 14
7.3376989 0.78310484 -17.135529 8
7.4654937 0.72695994 -17.087364 8
7.3559694 1.4420707 -17.141428 9
7.4409456 1.5152538 -17.166065 9
7.3197584 2.1293693 -17.173859 10
7.4258366 2.317395 -17.09598 10
7.3131285 2.799449 -17.145025 11
7.4438744 3.114105 -17.089737 11
7.4621606 3.9223089 -17.1359 12
7.3907213 4.4785371 -17.010653 13
7.4777932 4.7632718 -17.179035 13
7.4144974 4.9973102 -17.013092 14
7.4445429 5.282887 -17.147255 14
7.3598232 0.73760366 -16.90258 8
7.4272242 0.72671419 -16.988613 8
7.3603296 1.4571354 -16.879959 9
7.4686427 1.4569585 -16.980385 9
7.3317118 2.1566272 -16.824406 10
7.4029684 2.0991533 -16.923103 10
7.3399324 2.2012997 -16.832571 10
7.4808893 2.3326876 -16.914703 10
7.3893175 2.7832482 -16.887547 11
7.3357806 2.8630471 -16.858631 11
-19.0844 3.0023527 -16.854656 10
7.4987698 3.1445675 -16.907988 11
7.3834381 3.5355856 -16.915293 12
7.4325495 3.4899142 -16.956825 12
7.3718257 3.6552095 -16.888908 12
7.5210152 3.9614246 -16.906042 12
7.3783641 4.3185749 -16.919167 13
7.4406881 4.9288335 -16.949581 14
7.4135389 5.1450615 -16.967058 14
7.3582134 -1.1968814 -16.685879 6
7.3443718 0.063469142 -16.701384 7
7.3573852 0.75363672 -16.746433 8
7.3584871 1.4402723 -16.778301 9
7.5351429 1.550951 -16.633997 9
-19.22349 2.1854179 -16.690205 9
7.5039396 2.3764117 -16.684761 10
-19.173084 2.9038587 -16.647188 10
7.5087605 3.1832464 -16.667728 11
7.5192919 4.0101209 -16.766037 12
7.3751974 -1.2157955 -16.477217 6
7.4150276 -1.3024496 -16.558727 6
7.3576059 0.10059986 -16.454481 7
7.5432453 0.75746733 -16.556223 8
-19.356514 1.4894522 -16.538136 8
7.4126234 4.7353334 -16.4282 14
7.2231712 -1.8556198 -16.314924 5
7.385746 -1.2469462 -16.340139 6
7.375741 0.73969185 -16.206057 8
7.4709663 0.70142615 -16.207104 8
7.394948 1.3809326 -16.307888 9
7.3627605 2.0356555 -16.248121 10
7.3570065 2.6960416 -16.212351 11
7.4456854 3.0081625 -16.214705 11
7.4123821 3.3612747 -16.370747 12
-19.310398 3.587914 -16.243673 11
7.3727274 3.674655 -16.345051 12
7.4679937 3.797322 -16.314671 12
7.4037275 4.0368352 -16.34045 13
7.4504008 4.6794739 -16.266699 13.5
7.4365015 4.8461094 -16.278778 14
7.4451494 5.0007033 -16.236347 14
7.4526367 5.2377768 -16.389544 14
7.5355253 5.4180951 -16.338484 14
7.3257985 -1.8596461 -16.151424 5
7.4301996 -0.66876054 -16.044636 7
7.3794451 0.10055652 -16.134275 7
7.3868809 0.73440009 -16.009892 8
7.5590291 0.72963023 -16.006422 8
-19.410477 1.0079433 -16.192146 8
7.3990984 1.3725345 -16.009335 9
7.4713621 1.4538534 -16.186462 9
7.3832951 2.125659 -16.009047 10
7.4862776 2.2813578 -16.087715 10
7.5505972 3.0715652 -16.014538 11
7.6916513 3.0301695 -16.020124 11
7.4455485 3.3572583 -16.103577 12
7.4209075 3.4947846 -16.061363 12
7.5974326 3.7943025 -16.011705 12
7.4350915 4.0401955 -16.074059 13
7.4320173 4.322021 -16.087645 13
7.6106477 4.6199198 -16.101231 13
7.4826126 5.0800486 -16.118681 14
7.7870932 5.3975849 -16.061098 14
7.3392448 -1.8332942 -15.812955 5
7.4906406 -0.043448955 -15.858762 7
7.3791599 0.088864274 -15.834771 7
7.3921442 0.71721303 -15.897362 8
7.5034523 0.6838311 -15.902547 8
-19.724566 1.2164936 -15.802532 8
7.4366245 1.368343 -15.930123 9
7.5466733 1.4665394 -15.95077 9
-22.377268 1.6855439 -15.803161 8
7.4441881 1.9943534 -15.887018 10
7.3741875 2.0560644 -15.913367 10
7.5442247 2.2359712 -15.912262 10
7.6801786 2.2524927 -15.831926 10
-19.504028 2.7699015 -15.931989 10
7.3684015 2.7430978 -15.864959 11
7.4386873 2.6499755 -15.868546 11
7.5380116 3.0289543 -15.890586 11
-19.578394 3.7856135 -15.979541 11
7.555357 3.8710511 -15.901117 12
7.7283869 4.5748816 -15.922315 13
7.3940449 0.076772131 -15.716835 7
7.7076082 0.74400699 -15.799646 8
7.6946249 1.4803188 -15.768717 9
7.4323378 4.3344231 -15.62586 13
7.589488 4.626822 -15.79308 13
7.4822044 5.1176267 -15.751109 14
7.3997326 0.67834258 -15.592507 8
7.3988686 1.3845762 -15.573771 9
7.4115801 2.0790122 -15.488789 10
7.4123411 2.7784173 -15.468929 11
7.3818941 2.8350406 -15.519258 11
7.4454584 3.2706432 -15.483108 12
7.4400425 3.5287547 -15.518574 12
7.4425678 3.9348454 -15.464102 13
7.4636793 4.2220693 -15.47912 13
7.5001431 4.9595275 -15.494807 14
7.2631741 -1.8462409 -15.334988 5
7.3993883 -0.039219353 -15.242292 7
7.4346724 1.3326378 -15.289663 9
7.5855498 1.4207389 -15.2398 9
7.4065256 1.9752573 -15.381197 10
7.3989534 2.0302269 -15.269804 10
7.3926697 2.6559219 -15.298223 11
7.4572725 3.3081319 -15.361271 12
7.4516001 3.4110456 -15.377392 12
7.4431257 4.1170468 -15.350637 13
7.5990577 4.5214334 -15.266005 13
7.4729433 4.8314118 -15.363518 14
7.8045692 5.2399158 -15.221034 14
7.481256 0.65566093 -15.119466 8
7.449976 1.3236145 -15.058764 9
7.6191764 1.386812 -15.028998 9
7.5588002 2.1904233 -15.192698 10
7.5563998 2.94733 -15.170153 11
7.6605806 2.9175067 -15.080318 11
7.5881944 3.7143354 -15.181211 12
7.6332269 3.6669209 -15.071725 12
7.4738331 3.9297731 -15.024588 13
7.4891634 4.5713539 -15.094304 14
7.3958673 -1.8256012 -14.804029 5
7.4305215 0.04546231 -14.921691 7
7.4342046 0.68626511 -14.869081 8
7.6188083 0.647901 -14.955155 8
7.5943208 2.1471248 -14.982265 10
7.7142172 2.1752427 -14.926609 10
7.3941765 -1.7736081 -14.758037 5
7.4624939 -1.1786957 -14.750246 6
7.4521894 -0.026420135 -14.712594 7
7.4617176 0.64695174 -14.703272 8
7.4690094 1.3148386 -14.691945 9
7.4908652 3.7067733 -14.651424 13
7.501616 4.3472972 -14.654561 14
7.4921002 -1.2104006 -14.521335 6
7.4960423 -0.54182321 -14.498048 7
7.5019412 0.59779733 -14.435715 8
7.5049481 1.1989897 -14.525923 9
7.4735861 1.2675391 -14.475624 9
7.7549028 1.4005927 -14.438416 9
7.4618874 1.8713367 -14.509699 10
7.7329741 2.1316359 -14.402049 10
7.4580808 2.4295068 -14.529285 11
7.4947801 3.0530093 -14.571909 12
7.64641 5.1244826 -14.538592 14
7.467649 0.030737488 -14.22146 7
7.4452181 0.66300595 -14.378415 8
7.4890709 1.2785586 -14.3647 9
7.425396 2.5229549 -14.273397 11
7.4627285 2.6499751 -14.313343 11
7.7334414 2.8511083 -14.386896 11
7.490582 3.1245408 -14.27088 12
7.5192547 3.326915 -14.270229 12
7.503705 3.7235262 -14.21648 13
7.5205326 4.0268416 -14.252432 13
7.4218235 -1.8724698 -14.052169 5
7.4534092 -0.053727154 -14.158068 7
7.458457 0.62543595 -14.147503 8
7.4830599 1.3006368 -14.155195 9
7.4426732 1.9295143 -14.146722 10
7.4276037 2.4647639 -14.163692 11
7.4527769 2.6830857 -14.095842 11
7.5044651 3.3833449 -14.127938 12
7.5163746 3.7795982 -14.106546 13
7.5065651 4.0998282 -14.113507 13
7.5220947 4.4218578 -14.098434 14
7.5345583 4.8204751 -14.12301 14
7.5376267 -0.54921722 -13.816015 7
-19.306866 1.3563976 -13.808943 8
7.5787506 2.0387082 -13.855891 10
7.5840902 2.7603948 -13.840227 11
7.5251493 3.1363845 -13.822225 12
7.5290165 3.7904 -13.810561 13
7.5376897 4.1968436 -13.944777 14
7.5494022 4.446456 -13.814378 14
7.541328 -1.1735595 -13.654243 6
7.5453706 1.1396431 -13.648254 9
-19.149439 1.9811487 -13.682089 9
7.469573 1.8644096 -13.722806 10
7.5001082 2.3204696 -13.653215 11
7.5345044 2.9321964 -13.780828 12
7.5430369 3.5490777 -13.781263 13
7.5258951 3.6266677 -13.628119 13
7.538105 4.2745376 -13.777465 14
7.4948692 -0.00019977614 -13.56071 7
7.5430703 0.5629546 -13.565948 8
7.4835267 1.6256112 -13.552608 10
7.4798751 2.1969974 -13.536057 11
7.5187774 2.7822165 -13.573829 12
7.5426631 3.3881352 -13.59254 13
7.4681387 -1.8373358 -13.336205 5
7.5644045 -0.61233974 -13.153403 7
7.4906659 3.8923054 -13.179713 14
7.5661421 4.3278542 -13.157088 14
7.583724 2.6554799 -12.814148 11
7.6296768 4.089982 -12.89992 13
7.5899477 1.9533166 -12.676111 10
7.6499052 4.7610478 -12.586375 14
7.5524378 -1.2513444 -12.265596 6
7.5938425 -0.64336288 -12.275337 7
7.5681419 -0.022022348 -12.259736 7
7.5395479 0.56168175 -12.244381 8
7.580657 1.161024 -12.265842 9
7.613265 1.4854801 -12.31006 10
7.6060009 2.0137329 -12.289783 11
7.6422129 2.5547073 -12.318618 12
7.6605082 3.1134825 -12.32688 13
7.6638041 3.6650953 -12.317683 14
7.5735955 0.42313576 -12.037662 8
7.6266246 2.5681813 -12.059315 12
7.6123881 1.4737875 -11.845799 10
7.6105914 2.0022857 -11.834893 11
7.6606135 3.0992289 -11.871455 13
7.6558223 3.6756601 -11.999741 14
7.5842509 -1.1518701 -11.764667 6
7.5676212 0.94383126 -11.793539 9
7.6028295 0.92525834 -11.702818 9
7.5949602 1.4674422 -11.682567 10
7.5963974 1.9871463 -11.675996 11
7.626482 2.5163274 -11.698988 12
7.638216 3.0624287 -11.702532 13
7.6443739 3.6046357 -11.700356 14
7.7388954 3.4690921 -11.253675 14
7.955389 4.4235406 -11.337796 14
7.6553469 1.3774478 -11.083776 10
7.6418047 1.8745468 -11.061096 11
7.6797276 2.3847253 -11.088271 12
7.6885195 2.9087305 -11.087049 13
-2.8571801 1.1343995 -10.985662 10
-2.6757452 1.4592359 -10.961602 11
7.7665682 3.3954105 -10.837939 14
-8.0751553 0.93439656 -10.630688 9
-5.515337 1.1410383 -10.781883 10
-8.0668125 1.2892822 -10.638387 10
7.6211424 1.3842697 -10.686702 10
-5.6453958 1.4560368 -10.713571 11
-8.1191082 1.6390823 -10.626973 11
-5.6506262 1.7929848 -10.793861 12
-8.0801067 1.990344 -10.639571 12
-7.4896288 2.5711944 -10.640879 14
-20.745424 2.7222841 -10.62306 10
-20.807068 4.0289865 -10.632251 12
-8.4258404 0.59838659 -10.566133 8
-8.4202213 0.92389494 -10.571751 9
-8.7732105 1.2799582 -10.52895 10
-8.4122524 1.2625048 -10.569838 10
-8.6174459 1.5917553 -10.446253 11
-8.4191685 1.5870988 -10.506817 11
-8.8405762 1.6114638 -10.466091 11
-8.8491936 1.9589276 -10.517467 12
-8.3968563 1.9309882 -10.567106 12
7.6366653 1.8638222 -10.516759 11
-8.6610527 2.2988718 -10.542273 13
-8.3844757 2.2752662 -10.549093 13
7.6746492 2.3668752 -10.545045 12
-8.3754482 2.6206872 -10.543869 14
7.6633816 2.8784361 -10.531084 13
7.6524534 3.3856487 -10.514153 14
7.6965656 0.85263705 -10.062157 9
-21.158709 4.0260034 -10.105184 12
7.7325802 1.3115613 -9.9400463 10
7.7535486 1.7599809 -9.9145384 11
7.7918081 2.245203 -9.9399195 12
7.8006439 2.7434597 -9.9387445 13
7.8042383 3.2380481 -9.9338331 14
-21.30785 4.0748501 -9.9930696 12
7.6845322 1.309352 -9.7012253 10
7.723237 1.7889456 -9.6360607 11
7.7735357 2.7657967 -9.6153221 13
7.7793102 3.260251 -9.615057 14
7.6997604 1.3020766 -9.5946207 10
7.703908 1.7655145 -9.4953928 11
7.7495871 2.2530179 -9.5341892 12
7.7461843 2.7390687 -9.5188179 13
7.7529116 3.2303026 -9.5186806 14
7.7352233 1.7479124 -9.232872 11
8.3282928 1.8033583 -9.2060661 11
7.7130709 0.80026323 -9.1902294 9
7.7023153 1.2768121 -9.14571 10
8.3406096 1.3190831 -9.1672602 10
7.8852487 2.2219708 -9.108387 12
7.8898001 2.7102685 -9.1067524 13
7.8756485 3.1905785 -9.0916576 14
7.9240923 0.84142935 -7.7257729 9
-4.5351381 1.8606722 -7.6507473 13
-4.5441494 2.1700315 -7.6758766 14
-3.0702395 0.67594618 -7.4548492 10
-4.6931014 0.94196141 -7.4573541 11
-2.900754 0.87215245 -7.5151219 9
-4.7009254 1.1442161 -7.4448152 12
-3.0058165 1.1653384 -7.4146986 12
-4.5919766 1.2352184 -7.4073009 12
-4.6680679 1.4542623 -7.4952679 12.666667
-4.5833507 1.5369867 -7.558403 12
-4.6393371 1.797405 -7.4993868 13
-2.9050119 1.6114154 -7.4794874 11
-4.6268759 2.1078036 -7.5708532 14
-2.3193712 0.042124301 -7.3000283 7
-2.3662817 0.2779004 -7.2169232 8
-4.3112359 0.45485115 -7.2366056 8
-4.0515838 0.47445393 -7.2134867 9
-2.333004 0.47933888 -7.2145214 9
-4.5970602 0.74909896 -7.3785267 10
-4.0457478 0.69911689 -7.2052383 10
-4.5595341 0.96282965 -7.2675371 11
-4.0556612 0.88175631 -7.2041669 11
-3.090287 0.8703922 -7.372467 11
-4.6333342 1.1776153 -7.3728213 12
-4.5521178 1.2701876 -7.3314309 12.666667
-2.8377542 1.3984985 -7.3526926 12
-4.3864536 1.4115615 -7.2904172 12
-4.5953074 1.6794585 -7.2856522 14
-3.5577986 -0.37153688 -7.0263433 6
-3.5373077 0.061551228 -7.0236077 7
-4.023767 0.28386939 -7.1217132 8
-2.3399267 0.26429579 -7.1782784 8
-4.0294404 0.45689529 -7.1615009 9
-2.3375406 0.48329574 -7.1733589 9
-4.3691168 0.77614659 -7.1197519 9
-4.0377221 0.68097448 -7.1709294 10
-4.0737071 0.85871166 -7.0549326 11
-4.1042337 1.0903867 -7.1093163 12
-4.0880818 1.2952131 -7.0523582 13.166667
-4.0958843 1.4830112 -7.0525007 14
-5.3744478 1.7184279 -7.1583009 13
-3.0030684 1.8870039 -7.1098771 14
-2.8502975 1.8640826 -7.1025138 13
-3.8215497 -0.46288267 -6.8664541 5
-3.4755917 -0.49139714 -6.9298425 5
-3.7988672 -0.29828009 -6.9603205 6
-3.5633588 -0.13285254 -6.9886947 7
-4.0047569 0.34561968 -6.9691648 8
-3.6164136 0.2564871 -6.8965139 8
-3.6030276 0.45063701 -6.9209805 9
-3.5378292 0.59821492 -6.8667164 10
-4.0389524 0.61622959 -6.9656096 9
-3.5285268 0.78558028 -6.8996677 11
-4.1142321 0.88089573 -6.837122 10
-4.1677742 1.1703981 -6.9278922 11
-3.556076 1.0011727 -6.9666371 12
-4.0760474 1.3882539 -6.927268 12.5
-4.0341268 1.4584833 -6.953516 12
-3.0144639 2.1312108 -6.9836497 14
-3.7747347 -0.6216616 -6.7494488 4
-5.7314506 -0.38414425 -6.4468365 5
-6.2229815 1.3938477 -6.5942321 12
-5.997117 1.3462795 -6.4478292 13
-6.1460428 1.4849253 -6.5478072 12.5
-6.2835093 1.6341972 -6.4947386 13
-6.1616812 1.7717972 -6.4782019 13.5
-5.7025032 -0.21694562 -6.385736 6
-6.2748432 1.8662369 -6.3936367 14
-6.1383657 1.8993323 -6.3627925 14
-5.2979655 -0.53527892 -6.1224241 4
-5.2760072 -0.22382948 -6.0493965 6
-6.0416446 0.92729384 -6.104444 11.333333
-5.9813638 0.83797777 -6.086957 11
-6.035779 1.1169825 -6.1473589 12.5
-6.0238557 1.3132859 -6.0914912 13.333333
-5.9603977 1.230757 -6.1199093 12
-6.0814424 1.4809614 -6.0296831 11
-5.956399 1.4360659 -6.1123419 12.5
-5.9483199 1.6980551 -6.1155081 14
0.070991993 -0.64896393 -5.8540668 5
0.022745609 -0.43241027 -5.8295517 6
-5.1337147 -0.36530548 -5.9180384 5
0.075376511 -0.019708492 -5.8171949 7
0.052227497 0.19524658 -5.8018618 8
0.070815563 0.23856603 -5.8132772 8
0.075981297 0.45452568 -5.8213124 9
-14.411327 0.78338403 -5.8262014 8
0.062513828 0.73626065 -5.8090706 10
0.057306767 0.9539659 -5.8097925 11
-14.466829 1.1095693 -5.9269543 9
-5.4262242 1.162383 -5.8342299 10
0.065996647 1.0271143 -5.8270817 11
0.080478668 1.2865753 -5.811307 12.25
0.1004459 1.5103465 -5.8232932 13.333333
0.11532784 1.7038418 -5.8350921 13.5
0.12117004 1.913093 -5.8263025 14
0.059310198 -1.1350479 -5.773613 3
-3.1737471 -0.70883983 -5.7945137 3
0.046191454 -0.52124858 -5.7954693 6
0.068658829 -0.26016426 -5.7414455 7
-5.351934 0.3634029 -5.6256213 8.5
-5.1468296 0.21428491 -5.6324768 8
0.033919811 0.22078215 -5.7785106 8
-10.576914 0.49008226 -5.6117296 8
-5.3323574 0.52543294 -5.6705513 9.1000004
0.075528383 0.41415912 -5.7150059 9
-10.64469 0.73221755 -5.6600933 9
-5.4142532 0.70202601 -5.6395478 9.5
-5.3763671 0.69762743 -5.6919293 10.285714
0.044750571 0.62347925 -5.7142973 10
-10.734726 0.85541558 -5.6746712 9
-5.4192162 0.87607837 -5.6936779 12
-5.3771639 0.89505678 -5.6644778 11
0.047356248 0.83868545 -5.7123699 11
0.20803642 0.87120032 -5.620966 10
-10.788121 1.1480997 -5.7461796 10
-5.4385114 1.0472927 -5.6652284 11
-5.3620577 1.1049011 -5.7480989 10
0.076914154 1.0531628 -5.7439365 11.666667
-10.806904 1.2105688 -5.6770401 10
0.11760855 1.2409331 -5.6552558 13
-14.798596 1.5643003 -5.6486216 10
-10.672817 1.4653732 -5.6431046 11
0.087794304 1.4739949 -5.7240305 14
-10.719603 1.7267151 -5.6464486 12
-10.592604 1.7513704 -5.6290708 11
-14.613363 1.9223506 -5.6149521 11
0.25302458 1.8087286 -5.7351007 13
-14.605192 2.3111715 -5.6478252 12
0.095107555 -0.87085283 -5.4402552 4
-7.6235847 -0.79098499 -5.4123631 5
-7.6651359 -0.48120916 -5.4298525 4
-7.6480198 -0.24417877 -5.4149432 5.5
0.22334814 -0.026481051 -5.5800352 7
-7.6593323 0.14376293 -5.4075217 7
0.080676794 0.17576429 -5.5543408 8
0.13192928 0.32284448 -5.549613 8.5
-5.4354768 0.4273845 -5.590518 9
-5.351645 0.49866587 -5.5312314 8
0.14013851 0.57488418 -5.5565023 9.5
-7.5893207 0.77227879 -5.4462609 9
0.092683315 0.79555893 -5.5617385 11
-10.834064 0.91823936 -5.5960479 9
-7.5572524 0.95271111 -5.4164014 10
0.23058081 0.80014598 -5.4045248 10
-7.6151552 1.1383579 -5.4003744 12
-7.5825105 1.1038038 -5.4068704 10
-7.571382 1.2197144 -5.4010062 11
0.27426291 1.3645538 -5.4219275 12
-7.5881891 1.4635825 -5.4174042 11.5
-10.585499 1.6990479 -5.5991302 13
-13.038114 2.8542488 -5.5727968 14
0.092322111 -1.0074708 -5.213335 3
0.71979928 -1.0784001 -5.2053146 3
-7.6570773 -0.87532353 -5.2309017 1
0.053017855 -0.86894274 -5.214417 4.5
0.7673285 -0.89168286 -5.2102656 4
-7.6719913 -0.73436373 -5.2770224 2
0.10954571 -0.61616397 -5.2297058 5
0.79475284 -0.69609976 -5.2152786 5
0.77141213 -0.47352889 -5.2003713 6
-7.6760798 -0.31264144 -5.345089 5.5
-7.6412411 -0.19536626 -5.3518519 6
0.22623968 -0.029104721 -5.3870583 7
-7.6534839 0.14678338 -5.2786331 7
-7.6287937 0.33181235 -5.3357491 8
0.19226074 0.24345359 -5.3610363 8
-7.6097798 0.54061538 -5.3366609 9
-7.5819993 0.52929014 -5.2662344 9
0.06639719 0.50736982 -5.3417368 9
-7.6102486 0.66132748 -5.3085718 9.5
-7.5798817 0.71428192 -5.2705226 10.25
-0.026806831 0.62246054 -5.2482166 9
0.14617634 0.79163706 -5.2126756 11
-7.6157179 0.87546802 -5.3374348 10.5
-7.5781536 0.90177351 -5.2782903 9.666667
0.011091232 0.96888322 -5.2019382 10
-7.6160483 1.1124817 -5.3555617 11.5
-7.5877852 1.1643054 -5.309732 12.5
0.14084451 1.0415492 -5.2699122 11.666667
-7.6309371 1.2917392 -5.300981 12
-7.5853782 1.3328266 -5.392242 13.5
0.15543301 1.2505077 -5.2467747 13
-7.6293883 1.5190328 -5.2809367 12.333333
-7.5911179 1.5018038 -5.3821979 14
0.15505147 1.4567646 -5.326663 14
-7.619482 1.6971308 -5.3367267 12.5
-7.5831885 1.7222738 -5.2718315 13.666667
0.13321733 1.6254808 -5.3639059 13
-7.5963759 1.8824258 -5.2852807 14
0.13000965 1.9078403 -5.3567247 14
-7.5486798 2.0157549 -5.2608032 14
0.12522149 -1.2030084 -5.1694341 2
0.67389822 -1.2568252 -5.1841407 2
-7.8347268 -1.0050944 -5.1956387 0
0.11081243 -1.0902611 -5.1705961 3
0.29390895 -1.0339737 -5.1788149 4
0.48782468 -1.0374026 -5.1728501 3
0.72963852 -1.0813434 -5.1859303 2.875
0.14618731 -0.91503632 -5.1554728 4.5
0.41694474 -0.93690097 -5.1850176 5
0.75120509 -0.84297633 -5.1945896 4
-7.6568966 -0.68891644 -5.0207262 2
0.047853667 -0.66831142 -5.1554446 5.6666665
0.29156637 -0.66816545 -5.1591763 6
0.5207932 -0.60657138 -5.1771107 6
0.71076155 -0.64136022 -5.1942377 5
-7.6567049 -0.49606726 -5.1435785 3.5
0.1304369 -0.4495995 -5.1494713 6
0.72048837 -0.48290765 -5.1775346 6
0.11111641 -0.22446844 -5.150908 7
0.6946888 -0.28278053 -5.1471238 7
-7.6745009 0.13812177 -5.0355868 7
0.12110019 0.15090801 -5.1405106 8
0.79322958 0.080170311 -5.1529312 8
0.82299638 0.18160936 -5.1746926 8
-7.6145506 0.31028482 -5.172657 8
0.089164488 0.3453837 -5.1453109 8.4285717
0.2684927 0.29564661 -5.1185541 8
0.52376878 0.36183918 -5.1273937 8
0.73312593 0.2775372 -5.1219845 8.333333
0.81181228 0.37836501 -5.1536303 9
-7.5799117 0.48283798 -5.1283073 9.25
0.1392929 0.49874651 -5.1488614 9.75
0.28094184 0.49877334 -5.1059666 9.5
0.40592456 0.55112529 -5.1279683 10
0.75468665 0.47323251 -5.1389117 9.666667
0.81034076 0.50836092 -5.1587934 10
-7.5716381 0.73383939 -5.1270885 10.5
0.11785347 0.67067051 -5.1582007 10.142858
0.20005393 0.71147603 -5.1120243 9
0.49701202 0.64782643 -5.1032157 9.5
0.71175128 0.68320709 -5.1160879 10.166667
0.81856781 0.66661257 -5.1618085 10.333333
-7.5797105 0.91093707 -5.1708803 12.333333
-0.036886215 0.93427515 -5.1980362 10
0.15113072 0.91386354 -5.1673198 11.2
0.28139901 0.86299926 -5.1337829 11
0.73773038 0.97327149 -5.1133261 10.5
0.81911165 0.86841136 -5.173008 11.666667
-7.5867205 1.0513856 -5.0814462 13.5
0.14690638 1.1049263 -5.1771336 12.5
0.20497632 1.047842 -5.1137733 10
0.49070024 1.0168809 -5.1186399 10
0.68427837 1.0680115 -5.1192188 10
0.82916754 1.0729802 -5.1825132 12.7
0.14828756 1.3204719 -5.1574244 13.333333
0.24644621 1.2947856 -5.1499176 11.666667
0.54156446 1.3565431 -5.1506619 11
0.75219637 1.2491859 -5.1566548 13.333333
0.84366769 1.256166 -5.186388 13
0.14618024 1.5107691 -5.1148448 13.4
0.41752863 1.5655404 -5.147717 14
0.69291085 1.4236407 -5.1352201 12.666667
0.84399104 1.4786942 -5.1599169 14
0.14687228 1.7200991 -5.0747089 13.333333
0.21955633 1.6331518 -5.1306581 14
0.70611382 1.7324276 -5.1382451 14
0.85635519 1.7081321 -5.0471849 13
0.18062481 1.8995079 -5.0743327 14
0.87979317 2.0147643 -5.0549412 14
-6.3109961 -1.0682106 -4.8208122 0
-6.1492224 -1.0094297 -4.8133597 1
-5.981492 -1.0952334 -4.8150883 0
-5.5368991 -1.0805266 -4.8506718 1
-7.6396298 -0.88706726 -4.8884096 0.5
-6.1564131 -0.87645352 -4.8139124 1.5
-7.6486959 -0.61271954 -4.9154286 2.5
-7.6356764 -0.41505635 -4.8479185 4
-7.5728788 0.64925349 -4.8410921 11
-7.5726247 0.90091312 -4.9212289 12.5
-7.5814714 1.1240491 -4.9491329 14
-15.992435 1.5548127 -4.9635482 10
-16.022339 2.1926115 -4.885653 12
-16.006042 2.2419388 -4.9811835 12
-5.6094589 -1.2153652 -4.6579728 0
-7.7964892 -1.0018958 -4.7215476 0
-6.2992911 -1.1694125 -4.7748728 0
-8.2814693 -0.92336398 -4.6667595 0.5
-8.1192389 -0.87641376 -4.725359 2
-7.9008927 -0.89916754 -4.7034731 1.375
-7.7117767 -0.86972904 -4.6799335 2.625
-8.2763414 -0.72472888 -4.6905599 2.8333333
-8.1316175 -0.66699553 -4.710206 2
-7.9082451 -0.717507 -4.7655401 5
-7.6633587 -0.67272359 -4.7320065 2.4444444
-8.2998152 -0.50187439 -4.7067862 3.25
-8.1029673 -0.48643175 -4.7171893 6
-7.9159646 -0.47923446 -4.7521033 6
-7.6815901 -0.45614976 -4.7034488 4.5
-8.2506275 -0.36720577 -4.73841 4.5
-8.1243687 -0.39299744 -4.7123928 4
-7.905623 -0.37455589 -4.7297974 6
-7.684227 -0.27886945 -4.6904297 5.5
-8.2299786 -0.10263652 -4.7124052 6.5
-8.1309166 -0.095017985 -4.7079945 6.5
-7.8550363 -0.10808395 -4.7452335 7
-7.6662388 -0.083255395 -4.6889958 6.6666665
-7.6888618 0.13040186 -4.7387428 7
-8.2233887 0.33157429 -4.6826868 8.125
-7.8540258 0.20017919 -4.7511225 7
-7.6446805 0.34150699 -4.6707907 8.3095236
-7.5753889 0.32396531 -4.7225256 8
-8.2383671 0.49826276 -4.6893759 9
-8.1053057 0.49605647 -4.6849999 8.25
-7.8636107 0.49295795 -4.7106004 8
-7.6320786 0.55382669 -4.6928511 9.625
-7.596879 0.52210867 -4.6026182 9
-8.2045908 0.78542054 -4.6455412 11.5
-8.101181 0.69901109 -4.681571 10.2
-7.839325 0.78300035 -4.7129245 9
-7.6359811 0.73110598 -4.6658692 10.244445
-7.5888119 0.7231437 -4.6521177 9
-15.990108 0.87036556 -4.6521697 8
-8.2273741 0.9014051 -4.642767 11.25
-8.0927753 0.88060415 -4.6671438 11
-7.6446352 0.89761066 -4.6716633 11.136364
-7.5947514 0.90897131 -4.6861391 11.5
-8.2221651 1.0985184 -4.637188 12.333333
-8.1290751 1.1482509 -4.6987815 12.75
-7.8895783 1.1477245 -4.7258239 11.333333
-7.642643 1.1000134 -4.6787982 11.6875
-15.972065 1.2020414 -4.6468887 9
-8.2383213 1.2829734 -4.6581249 13
-8.1769266 1.2430339 -4.6508193 10.8
-7.9016137 1.2799463 -4.7126312 11
-7.6325431 1.3040884 -4.6793547 12.4
-7.5956764 1.2393212 -4.6413155 11
-15.976271 1.5511694 -4.6556129 10
-8.2649546 1.4850328 -4.6774187 14
-7.9748669 1.4710468 -4.7256331 12
-7.666791 1.4784751 -4.7086725 11.8
-7.5770454 1.5519061 -4.6136394 14
-15.966821 1.8929901 -4.6558237 11
-16.002724 2.210813 -4.6687555 12
-8.4112663 -0.92681295 -4.5968981 0
-8.3052893 -0.85133219 -4.5973554 5
-7.8743258 -0.94746071 -4.5064073 0
-7.6926079 -0.82256532 -4.5899 0.75
-7.7077107 -0.62054908 -4.5973663 2.25
-7.6725054 0.2599268 -4.5898657 8
-8.2868958 0.4868544 -4.5995393 8
-7.6944537 0.46136445 -4.5914159 8
-8.2164135 0.7004866 -4.5956717 11
-7.6606064 0.66718292 -4.5903778 11
-8.2762156 0.81632745 -4.5935407 9
-8.1746311 0.85107374 -4.5983825 9
-7.6578236 0.97003746 -4.5993996 13.5
-7.6771936 1.0980484 -4.5872116 12
-8.2017393 1.2613643 -4.5690079 10
-16.072208 2.5456254 -4.3029256 13
-16.044077 2.8947043 -4.2930751 14
0.42409229 0.88264483 -3.8082757 13
0.24322319 0.80371857 -3.4055991 13
-0.035803556 -1.2540505 -3.2032659 0
0.069054604 -1.295059 -3.3318903 0
-0.0018467903 -1.027609 -3.2434111 0
0.037514806 -1.136898 -3.2586703 0
0.12071904 -0.89781791 -3.2120152 4.1111112
0.045034967 -0.70323318 -3.2217941 3
0.18926525 -0.34890121 -3.2072303 6
0.2121371 0.14487527 -3.206938 8.75
0.19133043 0.36159763 -3.3838038 10
0.2387253 0.2598021 -3.2098627 10
0.20004368 0.5029524 -3.3725557 11
0.25906134 0.99259216 -3.2863963 13
0.21939588 1.0558171 -3.3219376 14
-16.170193 2.0807991 -3.3440027 12
0.14402223 -1.2377805 -3.117733 1
0.20278502 -1.2133926 -3.0115106 0
-1.5967076 -1.0662206 -3.0415034 0
0.1515241 -1.0806569 -3.0838552 1.25
0.24876833 -1.1280285 -3.0635185 3.6666667
-7.6440516 -0.93724042 -3.09496 2
-1.1603509 -0.88278341 -3.0128396 0
-0.43000716 -0.84082019 -3.0407145 3
-0.22998887 -0.92767823 -3.058912 2.5
-0.06658195 -0.84664178 -3.0872068 3
0.15646094 -0.89059103 -3.0996871 3.26
0.23094189 -0.91390383 -3.1092277 4.75
-7.6314044 -0.67086768 -3.0639951 2.5
-1.3419368 -0.73080957 -3.0034723 0
-1.1205928 -0.66477519 -3.0448556 3
-0.64932513 -0.67520195 -3.0854981 2
-0.47939372 -0.68855274 -3.0955291 2
-0.29612142 -0.70623708 -3.0866117 2
-0.069421746 -0.70969915 -3.1174891 3.5
0.1338966 -0.67788482 -3.1023061 4.0977011
0.25343668 -0.68715155 -3.1008313 3.0833333
-7.5873237 -0.48993319 -3.0573006 2.5
-1.1613491 -0.48474357 -3.0369201 4.5
-0.95285463 -0.43364659 -3.0699141 6
-0.63267529 -0.45301831 -3.0730734 4.5
-0.5168764 -0.54126912 -3.0884297 4
-0.34812942 -0.47252724 -3.0609181 4.3333335
-0.071074985 -0.51882726 -3.0886874 4.25
0.12507661 -0.51171482 -3.0978119 5
0.22544512 -0.46968871 -3.1153722 4.5
0.97214997 -0.43302169 -3.1534038 4
-2.8284645 -0.27462161 -3.0363519 5
-1.0690795 -0.2997787 -3.0347016 6.1666665
-0.65657443 -0.33363485 -3.0553463 5
-0.40273309 -0.20316751 -3.0693734 7
-0.33749783 -0.30222681 -3.0799582 5.6666665
-0.095126852 -0.32026309 -3.0802641 4.4000001
0.11174141 -0.31538168 -3.0725021 5.7600002
0.23456195 -0.31475672 -3.0811806 5.2222223
-2.1306353 -0.16468945 -3.0015025 7
-1.5153321 -0.16110127 -3.0067945 7
-1.1295434 -0.18565908 -3.0417333 6.5
-0.92913324 -0.16817266 -3.036948 7
-0.65215641 -0.062840618 -3.0675282 6.4000001
-0.40708637 -0.17485645 -3.0810974 7
-0.055608988 -0.12693316 -3.0706296 5.5714288
0.12873024 -0.1242001 -3.0895398 6.875
0.23331989 -0.077132307 -3.0769658 6.5
-1.1202877 0.092347659 -3.011832 8
-0.94998962 0.10338949 -3.0059912 8.25
-0.6295563 0.041261505 -3.0723073 6.9000001
-0.44300532 0.19400132 -3.0016532 8
-0.30018899 0.091628104 -3.048749 7.5
-0.082550623 0.039766204 -3.0700791 4.8333335
0.12724292 0.092237547 -3.0865071 7.3653846
0.22609089 0.087005548 -3.0682626 6.9545455
-0.68165511 0.35397637 -3.0132818 8.333333
-0.59174037 0.21072444 -3.0421438 9
-0.32209057 0.2591061 -3.0433998 8.75
-0.065753408 0.25886065 -3.0465684 7.7857141
0.13755061 0.29520619 -3.0695133 8.3253975
0.22348809 0.32180849 -3.0716586 9
-0.8138597 0.48976174 -3.0437903 9
-0.70882243 0.48426548 -3.0182993 9.166667
-0.55365491 0.44121745 -3.0236683 9.666667
-0.31076902 0.44488996 -3.0467129 9.5
-0.058867652 0.4744533 -3.0469658 9.166667
0.12158437 0.50162232 -3.0665295 9.409091
0.22228673 0.51150382 -3.0682731 9.78125
-1.0750737 0.69209188 -3.0244501 12.25
-0.95650512 0.7313509 -3.0412216 11.5
-0.46355137 0.70890671 -3.0489082 11.666667
-0.23859826 0.70308375 -3.0207791 11
-0.08640866 0.71305645 -3.0548258 10.555555
0.12690748 0.69405061 -3.0735393 10.790476
0.21705328 0.73514122 -3.0762138 11.863636
-0.86374116 0.97441787 -3.0395327 12
-0.68721068 0.94481945 -3.012074 9
-0.50766909 0.89035654 -3.0222831 10.8
-0.28343153 0.89148855 -3.0212235 11
-0.063273951 0.90112036 -3.0474854 11.208333
0.13557398 0.91081059 -3.0719521 11.209678
0.22369297 0.87686348 -3.0498593 11.833333
-0.95694131 1.180537 -3.0158215 13
-0.45250839 1.0508924 -3.0213299 11.5
-0.27507544 1.1942658 -3.0164392 11
-0.06090308 1.1071479 -3.0571473 12.1
0.13322623 1.0864693 -3.0450993 12.210526
0.20828637 1.1577682 -3.0245135 10.5
0.16743425 1.2965174 -3.0150123 12.25
0.20700407 1.216808 -3.0011163 11
-0.26555681 1.4899427 -3.0206354 12
-0.064073563 1.4816582 -3.0339582 12
0.148642 1.4786214 -3.032671 12.75
0.2160964 1.5165485 -3.0238359 12
-0.25033283 1.7990032 -3.0296814 13
-0.046446323 1.7890542 -3.0684438 13
0.12176379 1.7435166 -3.0100832 13.666667
-0.027287006 1.8125157 -3.0283871 13
0.083701611 1.8401356 -3.0319641 13
0.23391271 1.8417439 -3.0321212 13
-0.26485443 2.0981007 -3.0131128 14
-0.0061941147 2.107686 -3.0573835 14
0.10781479 2.1567731 -3.0184951 14
-1.8946613 -1.2413827 -2.8525765 1
-1.4975443 -1.2439678 -2.8263061 2
-1.2018633 -1.2073438 -2.9441271 0
0.18653345 -1.2300878 -2.9941502 0.5
0.24617203 -1.2753645 -2.8895917 3.7142856
-3.462997 -1.1503296 -2.8098667 0
-3.0793412 -1.0636846 -2.8318548 1.8333334
-2.8995686 -1.0769091 -2.8611465 0
-2.7102108 -1.1994145 -2.8079908 2
-2.4740715 -1.0524731 -2.8193836 1.6666666
-2.2913122 -1.1107833 -2.8610015 1.6
-2.0983098 -1.1660258 -2.8253264 2.75
-1.8531909 -1.0874205 -2.8375006 3
-1.7538379 -1.1324391 -2.8981309 1
-1.5196209 -1.1137161 -2.8430824 2.5
-1.2932485 -1.0678149 -2.9040489 3.0416667
-1.1768337 -1.041832 -2.9641128 1
0.24093521 -1.1188922 -2.967809 3.5
-7.6248932 -0.81969029 -2.9689069 1
-7.5635738 -0.87564903 -2.8716412 2.5
-7.1036215 -0.83086127 -2.8509662 3
-6.2409334 -0.85159385 -2.9146588 3
-4.5490055 -0.90783292 -2.8034034 3
-4.3237877 -0.91059792 -2.8149192 3
-4.1521306 -0.82003319 -2.8020072 3
-3.8317342 -0.92545843 -2.8138032 2.25
-3.6305828 -0.94067526 -2.8234653 1.6666666
-3.4555945 -0.97616673 -2.8341243 2.5
-3.2548528 -0.93700337 -2.8086159 3
-3.0919771 -0.89696717 -2.8292174 2.375
-2.9147797 -0.88065451 -2.8258297 2.6666667
-2.6270034 -0.84089565 -2.8246255 1
-2.4634633 -0.87395918 -2.8279483 3.5
-2.3370781 -0.93198252 -2.8617249 3
-2.1595211 -0.90354925 -2.8424363 4
-1.9046538 -0.92316246 -2.8470345 3
-1.7655823 -0.89416331 -2.8886528 3.0999999
-1.4861033 -0.91152287 -2.9011509 2.1428571
-1.2687386 -0.89642411 -2.9188867 2.28125
-1.1819638 -0.89015037 -2.918565 2.8333333
-0.2782155 -0.99394596 -2.9997869 2
0.16191173 -0.93021929 -2.9409451 1.9
0.23884957 -0.90186453 -2.981741 2.6666667
-7.6013985 -0.76704508 -2.8881927 3
-7.5785227 -0.6876083 -2.8805194 1.8
-6.853735 -0.70653296 -2.806251 4
-6.5607643 -0.70699292 -2.8177547 4
-6.3659496 -0.77041441 -2.8001196 3
-6.1512151 -0.66416931 -2.8238919 2.75
-4.7953167 -0.79292047 -2.8092556 3
-4.543231 -0.70340562 -2.8022656 4
-4.3327398 -0.69568604 -2.8112946 1.3333334
-4.1411967 -0.70941573 -2.8111238 2.5
-3.8574867 -0.70876521 -2.8221409 3.6666667
-3.666894 -0.70532781 -2.8193817 2.5833333
-3.4740913 -0.73428017 -2.8287971 3.8333333
-3.2234535 -0.76097929 -2.8431988 2
-3.103498 -0.7177304 -2.8342595 4
-2.899421 -0.64432418 -2.8733456 2
-2.4815731 -0.73617172 -2.8134952 4
-2.2961011 -0.67162412 -2.8621404 2.2
-2.1351461 -0.73246717 -2.854485 0
-1.9010961 -0.69126427 -2.8966546 1.75
-1.7388477 -0.66388685 -2.8622921 3.5
-1.4633832 -0.69717759 -2.899889 3.6666667
-1.2744045 -0.69902116 -2.9172583 3.0666666
-1.1659393 -0.70590246 -2.8880618 4
0.17651309 -0.68106085 -2.9393995 3
0.27304894 -0.73048478 -2.9851079 4.25
-7.6184015 -0.4972969 -2.8902977 4
-7.5444059 -0.50830048 -2.9014957 3.375
-7.0322008 -0.47046754 -2.8382549 4
-6.3482189 -0.49880916 -2.8197188 4.5
-6.1272459 -0.48131222 -2.8269157 4
-4.7851219 -0.54420817 -2.8048635 4.5
-4.539773 -0.50144207 -2.8025346 5
-4.3796625 -0.51000303 -2.8101528 5
-4.1248765 -0.4829483 -2.814111 5
-3.8779976 -0.47704858 -2.830956 2.9000001
-3.6878085 -0.50980699 -2.8236508 3.9285715
-3.4941201 -0.5177477 -2.831332 3.5714285
-3.2954354 -0.48555112 -2.8272312 2.2666669
-3.0845428 -0.54455 -2.8416626 4.0714288
-2.8889177 -0.47065306 -2.8658781 1
-2.756588 -0.48385677 -2.8687496 1.6666666
-2.4915464 -0.52891457 -2.866828 2.5
-2.3109922 -0.50834024 -2.8670325 3.5
-2.158304 -0.43360868 -2.9011464 3.25
-1.9319305 -0.53051543 -2.866956 3.5
-1.7353772 -0.47522581 -2.8920596 3.769697
-1.4892651 -0.49545804 -2.8943198 4.5714288
-1.2595856 -0.46212855 -2.9216108 5.1136365
-1.1805941 -0.4409835 -2.9232557 5.1666665
-0.64536476 -0.48625743 -2.9969511 4
0.17787424 -0.55147439 -2.9699521 3.25
0.2560063 -0.50679481 -2.955066 3
-7.5718913 -0.34141716 -2.8364336 3.6666667
-6.7213235 -0.24357016 -2.8462582 3.25
-5.9452577 -0.22507441 -2.8251536 2.5
-5.6546507 -0.24645871 -2.8314257 1.5
-5.5932031 -0.24666505 -2.8233409 3.5
-5.2934899 -0.24836747 -2.8210232 2.55
-5.0933948 -0.27093321 -2.8167329 3.8333335
-4.9314113 -0.27767882 -2.8168128 4
-4.724421 -0.28278497 -2.8302269 2.8571429
-4.5017748 -0.26980343 -2.8295591 4.4124999
-4.2706075 -0.28816363 -2.8454034 3.375
-4.0795741 -0.27748299 -2.9008837 3.25
-3.9083478 -0.31714341 -2.864507 3.5454545
-3.6669407 -0.29983294 -2.8777702 4.25
-3.491771 -0.3261337 -2.8771663 4.25
-3.3205001 -0.34676075 -2.8750274 2.1000001
-3.0922661 -0.36381215 -2.8599212 4.479167
-2.8799531 -0.3021324 -2.8945453 4.7613635
-2.7388988 -0.2663551 -2.8974183 5.5
-2.4728322 -0.2982358 -2.9280558 3.875
-2.2941999 -0.35639229 -2.891484 4.75
-2.064311 -0.28667945 -2.9498091 5.1111112
-1.8851084 -0.31626701 -2.9171662 4.75
-1.7421107 -0.35463303 -2.9580226 5
-1.4920799 -0.25413609 -2.9148965 4.875
-1.2390012 -0.28966635 -2.9305363 6.1111112
-1.1455632 -0.27073729 -2.9337521 6
-0.63068318 -0.28539729 -2.9641585 6
-0.59162927 -0.27902964 -2.9770114 6
-0.37740764 -0.28280202 -2.9498863 6
0.17699486 -0.39053079 -2.9761794 5
0.25073254 -0.32298797 -2.9572203 5.666667
-6.0244212 -0.11958993 -2.826582 7
-5.9627161 -0.11901136 -2.8212447 6.5
-5.6593781 -0.037366081 -2.8481221 6.5
-5.3019786 -0.13063958 -2.8318694 5.5873017
-5.1511278 -0.09517289 -2.8369834 7
-4.7217093 -0.14692788 -2.8441765 7
-4.4809661 -0.12891498 -2.8372014 6.2261901
-4.3648443 -0.12281981 -2.8709087 6.590909
-4.0727868 -0.099052034 -2.8944485 7
-3.919934 -0.1483236 -2.8646646 7
-3.6629462 -0.1470599 -2.8672528 6.2094283
-3.5699096 -0.14586741 -2.880302 7
-3.2807922 -0.14058593 -2.895611 7
-3.1511381 -0.12491152 -2.9278991 7
-2.8940439 -0.12956125 -2.88644 6.7592592
-2.7235997 -0.13995539 -2.8881185 7
-2.5292258 -0.15824381 -2.9593158 7
-2.3111112 -0.1640086 -2.9651697 7
-2.0782521 -0.17082886 -2.9199955 7
-1.8846947 -0.14108032 -2.9322174 7
-1.7152106 -0.12899043 -2.9403059 7
-1.4411765 -0.10452679 -2.9450536 7
-1.2878846 -0.12703098 -2.9269004 7.1111112
-1.1592619 -0.033387758 -2.9160776 6.3000002
