# .PCD v0.7 - Point Cloud Data file format
VERSION 0.7
FIELDS x y z intensity
SIZE 4 4 4 4
TYPE F F F F
COUNT 1 1 1 1
WIDTH 1255
HEIGHT 1
VIEWPOINT 0 0 0 1 0 0 0
POINTS 1255
DATA ascii
0.63390058 -0.23045462 1.3450063 5.3499999
0.70492077 -0.23911467 1.3012245 5.6071429
-15.307709 -0.12472104 1.3109565 7
-9.1341763 -0.13796249 1.3518672 5.5
-9.0599718 -0.17489371 1.3653291 2.9722223
-8.9682989 -0.1747209 1.3619277 3.75
-8.8828592 -0.1505608 1.3664732 7
0.58885992 -0.16711617 1.3457367 1.4
0.64192766 -0.14594223 1.3649069 4.198153
0.80624509 -0.11142078 1.341597 3.5
-15.688194 -0.02315251 1.3512306 7
-9.2055454 -0.092672825 1.3586055 7
0.65052801 -0.05754767 1.3685045 3.6211593
0.72204238 -0.08994101 1.3118064 5.5
0.81188351 -0.067336962 1.3212383 4
-16.020229 0.062994197 1.3492367 7
-15.951403 0.094604298 1.3902388 7
-15.347155 0.021894369 1.3886845 7
0.63673896 0.047624622 1.3473859 2.6666667
-16.020922 0.14808813 1.3544595 7
-15.985767 0.13421103 1.3725412 7
0.67685485 0.13109434 1.3594546 3.3846292
-16.036907 0.22214577 1.3840449 7
0.68453687 0.21087877 1.362981 4.3571429
0.73417866 0.56454718 1.3057218 4.9871798
-15.970978 -0.39374536 1.4359529 7
0.56283873 -0.35160813 1.4513179 6.6069155
0.61356258 -0.3332606 1.411443 7
-9.6488857 -0.20961356 1.4703455 6
0.58803695 -0.22650316 1.4213769 2.9027777
0.64007568 -0.24927934 1.4399524 5.4629631
0.70250583 -0.23019859 1.4348235 5.8000002
-11.128798 -0.16418958 1.4114009 7
-9.7314796 -0.17779668 1.4379693 6
-9.256876 -0.16249242 1.4003475 5
-9.0151501 -0.19867691 1.4880407 6
-8.9898701 -0.18209335 1.4133977 3
0.59195882 -0.18820739 1.4134023 6
0.66138458 -0.14033714 1.4328634 5.1296291
0.77020311 -0.15706059 1.463681 3.9972508
-15.957399 -0.014561731 1.4323866 7
-15.861477 -0.03149309 1.4639275 7
-15.769207 -0.010427963 1.4878166 7
-11.231273 -0.043038353 1.4880428 7
-10.525011 -0.080552757 1.4673157 5
-10.458764 -0.079233423 1.4010627 7
0.55072451 -0.09591157 1.4407599 2
0.61866355 -0.054089025 1.4127501 4.6666665
0.8166098 -0.050291609 1.4368504 3.3589745
0.5543316 0.060750186 1.4653751 1.1666666
0.66792774 0.089130908 1.440773 5
0.75794446 0.076570615 1.4460353 4
-16.037811 0.18013971 1.4414425 7
0.63148504 0.14018394 1.4753916 3
0.65159667 0.23498951 1.4792635 5
0.71633828 0.21215899 1.4494784 5
0.61128539 0.39593801 1.4513103 1.5
0.61746705 0.40215045 1.4564538 1.6666666
0.64688891 0.50567633 1.4831865 4
0.55657196 -0.42187756 1.543229 6.166667
-15.285967 -0.33584318 1.5660843 7
0.5388279 -0.3457886 1.5394083 6.5
0.62830353 -0.33116925 1.5508502 5.3495731
-9.0753326 -0.24715388 1.5636947 6
-8.9976015 -0.24331903 1.5012939 6
0.57625115 -0.25588822 1.5640681 5.229167
0.62146825 -0.25372472 1.5698994 3.6666667
-15.922522 -0.14903478 1.5646894 7
-11.303749 -0.1701819 1.5321122 7
-11.214611 -0.11045443 1.5897775 6
-10.784196 -0.14605954 1.5580608 7
-10.605948 -0.10271509 1.5834982 6
-10.530261 -0.13451201 1.549547 7
-10.4503 -0.1256312 1.5483369 5.9583335
-10.360164 -0.13498333 1.5880883 5.5
-10.220713 -0.13152736 1.5884027 5.5
-10.178063 -0.12983631 1.5763197 5.625
-9.1551046 -0.16071679 1.5428563 3.530303
-9.0273361 -0.16426191 1.5785735 5.4375
-8.927927 -0.17658737 1.5779798 3
0.59923893 -0.10005639 1.5997847 2
0.66266304 -0.15887494 1.5361992 3.75
0.78707212 -0.12937461 1.5439439 4.1666665
0.83861649 -0.16715743 1.5231165 3
-11.364929 -0.034807872 1.5540098 6.3333335
-11.219246 -0.044769902 1.5887412 5.9259262
-11.186305 -0.011747297 1.598882 7
-11.068941 -0.079463974 1.5664562 6.166667
-10.641821 -0.079465292 1.5730087 5.5
-10.541306 -0.045787439 1.5687834 5.6666665
-10.431606 -0.044117078 1.5532899 6.5
-10.362193 -0.06508217 1.5405483 6.3333335
-10.271883 -0.073028401 1.5737789 5
-10.148669 -0.056008197 1.56086 5.5999999
-10.081274 -0.064702272 1.5649617 5
0.60296935 -0.0044655502 1.5030107 1
-11.293585 0.0099515095 1.581135 6
-10.28433 0.0047060028 1.5778573 6
0.56987679 0.06438379 1.5293796 0.5
0.64315557 0.082003623 1.5866411 1.5943396
0.8051089 0.045845136 1.5645064 4
-16.01532 0.1164223 1.5797117 7
-15.847478 0.15373771 1.5820909 7
0.64705259 0.13252307 1.5236046 3.637037
-16.03577 0.21675465 1.5512518 7
0.64239216 0.20874414 1.5044248 4.5
0.73739851 0.20846426 1.5104307 5
0.78691232 0.50045943 1.5129473 4
0.54907733 -0.4358328 1.6566588 4.8737454
0.55749595 -0.3750419 1.6339431 5.75
0.637972 -0.32312083 1.6492478 7
0.72276413 -0.30293512 1.6406732 5.6666665
-15.972456 -0.24087927 1.6779836 7
-15.795337 -0.24429765 1.6632755 7
-10.529975 -0.20989054 1.6973529 7
0.59746003 -0.21279562 1.6131787 2
0.63899231 -0.21556252 1.6550779 5.5897431
-15.42771 -0.11825614 1.6956873 7
-11.35832 -0.10504039 1.6100804 5.25
-11.086311 -0.16455129 1.6589863 6.3333335
-10.94711 -0.12124334 1.6683691 6.166667
-10.618924 -0.12042857 1.6434474 4.8333335
-10.549583 -0.11514478 1.655453 4.8000002
-10.457922 -0.10487358 1.6985098 4.8888888
-10.340919 -0.11295165 1.6618614 5.8571429
-10.212251 -0.13287567 1.6384013 5.25
-10.168798 -0.12160808 1.6535624 5.0185184
-10.032305 -0.17348096 1.6454065 6
-9.3420525 -0.15718891 1.619823 4
-9.2025595 -0.15532476 1.6831642 3.9166667
-9.0052643 -0.17824402 1.6973079 6
-8.972683 -0.17794049 1.6827151 4.375
-8.8054276 -0.14548816 1.6730037 6
0.67520362 -0.17972711 1.6573585 4.9127159
0.74315619 -0.12715456 1.6216506 3.6579208
0.82160062 -0.12027815 1.6393414 3
-16.008995 -0.019235158 1.6003848 7
-15.959039 -0.024647327 1.6386117 7
-11.35801 -0.0087076798 1.6172781 6
-11.268245 -0.05272999 1.6041378 5.75
-11.12326 -0.055210259 1.6314492 6.2542729
-11.060059 -0.02502048 1.6387655 5.9047623
-10.961308 -0.033141628 1.6590247 5.9499998
-10.850151 -0.048775598 1.6545569 6
-10.582003 -0.0799651 1.6211838 6
-10.464497 -0.085905477 1.6488202 7
-10.232428 -0.0787488 1.663342 7
-10.138662 -0.099205926 1.6245806 6
-9.9488134 -0.098813042 1.6957047 5.75
0.62915611 -0.046133533 1.6092889 0.5
0.71193391 -0.073474944 1.6665673 2.6944444
-15.933989 0.028701654 1.6543124 7
-15.851399 0.032880776 1.6886585 7
-11.054899 0.011879187 1.6483653 6
-10.924928 0.013539333 1.6484878 6
-10.464235 0.00058671087 1.665395 6
0.6315999 0.038636908 1.6078389 0.5
-16.021936 0.15584271 1.6271111 7
-15.988671 0.16243556 1.6103052 7
0.59818411 0.105645 1.635365 2
0.62133467 0.16795893 1.6738615 4
-16.033932 0.22121313 1.6173646 7
0.66869295 0.48145413 1.6903795 4
0.78856987 0.53478813 1.6993191 5
0.56027335 -0.44511718 1.7080582 4.5086207
-15.931802 -0.38165104 1.7923722 7
0.55912101 -0.36457056 1.749095 5.4238973
0.63496923 -0.32572865 1.7561842 4
0.70075178 -0.31727791 1.7392657 7
-15.898472 -0.23925313 1.7221599 7
0.56638283 -0.28880498 1.7614883 5.7336602
0.63766253 -0.24843279 1.7498745 3.3
0.71109182 -0.25597483 1.7866875 6.666667
-15.974288 -0.12323985 1.7255149 7
-10.905779 -0.15322897 1.7695144 7
-10.770409 -0.14065032 1.7181929 7
-10.650542 -0.14337867 1.7071761 7
-10.420294 -0.11666699 1.7489264 6.363636
-10.206783 -0.16376527 1.767488 6
-10.038401 -0.15273184 1.7632166 5
-9.9954014 -0.13443702 1.7592514 5.5
-9.2513542 -0.13583213 1.783729 5
-9.1811485 -0.14729588 1.781268 4.5
-9.077136 -0.15679657 1.7734642 3.5
-8.9374409 -0.17080419 1.7741356 4.5
0.6495378 -0.17355992 1.7611849 5.3846154
0.7693696 -0.13641721 1.7391199 3.6798246
0.84630048 -0.15993434 1.7458853 3.5
-16.034246 -0.0084072836 1.7502548 7
-15.999493 -0.083523273 1.7132099 7
-10.943319 -0.056185104 1.776238 6.333333
-10.889317 -0.05476797 1.7975507 6
-10.664089 -0.033492547 1.7240205 7
-10.423797 -0.04203761 1.7407199 6
-10.304749 -0.00416141 1.7220945 6
-10.266704 -0.065030776 1.7536498 5.2703819
-10.19828 -0.070445672 1.7632791 5.7777777
0.64203882 -0.038142264 1.7979252 0.5
0.76417446 -0.061884172 1.7258093 5.833333
-10.208313 0.00042945892 1.7612634 6
0.63342839 0.049097601 1.7636129 2.5528457
0.74993205 0.071060359 1.7107604 4.1051669
-16.023006 0.19285214 1.7971826 7
-15.983172 0.11974548 1.7609904 7
0.6889109 0.17041154 1.797525 4.2857141
0.74422383 0.11536704 1.7344518 3
0.81348276 0.16261543 1.7738357 4
-16.014042 0.2127324 1.7259775 7
0.63902044 0.41625756 1.7754877 3
0.6415534 -0.41780594 1.8188947 6.5
-15.918218 -0.39063978 1.8703473 7
-15.852615 -0.3781293 1.8347516 7
0.56708646 -0.34701419 1.8454919 6.75
0.65072799 -0.35703409 1.8204374 6.6875
0.76946914 -0.35065055 1.8614894 4.5
-15.894918 -0.22474115 1.8869997 7
-8.9510078 -0.21273607 1.8730829 6
0.65173602 -0.24611917 1.8616097 5.583333
0.79657412 -0.20407915 1.8815584 4.4749999
-15.803972 -0.1387921 1.8097689 7
-11.24469 -0.12751307 1.85097 7
-10.838074 -0.19515643 1.8793762 7
-10.520061 -0.14617163 1.8265319 7
-10.369286 -0.13869222 1.8951999 5.25
-10.239563 -0.10382548 1.8207195 5.1111112
-10.151127 -0.11550814 1.8562567 5.8888888
-9.887228 -0.15013745 1.8901438 4.5
-9.3108931 -0.16891265 1.8487645 4
-9.2578745 -0.1661274 1.8076487 4
-9.1227217 -0.1933838 1.8711654 6
-9.0060511 -0.17721733 1.8639466 3.7368422
-8.9327946 -0.15869713 1.8149769 3.5
0.6804865 -0.16003457 1.8290447 4.6515369
0.76531374 -0.13057959 1.8269885 4.0046816
0.84247398 -0.14037646 1.8488368 3.8444443
-16.016804 -0.010717749 1.8573011 7
-15.798821 -0.02894986 1.875071 7
-11.240891 -0.076897658 1.867437 6.3333335
-11.067436 -0.0082267784 1.8377118 6
-10.951984 -0.03352109 1.8596826 5.833333
-10.416443 -0.01698688 1.8895223 6
-10.354204 -0.0095669106 1.8734605 6
-10.26359 -0.040393449 1.8344893 5.647059
-10.152484 -0.081051402 1.8545415 6
-10.057349 -0.075574964 1.8961748 5.75
-9.9646893 -0.061918229 1.8178657 7
0.65192616 -0.062372342 1.8875461 0
0.74858218 -0.069243118 1.8296986 5.5159874
0.80677426 -0.071925923 1.8514891 4.8178806
-15.998886 0.094317093 1.8010597 7
0.63833475 0.043795973 1.8402759 1.25
0.81501842 0.040174443 1.8258249 4.0333333
-16.013195 0.17611475 1.8547808 7
-15.990948 0.1208322 1.8507736 7
0.81393611 0.16036394 1.8059349 4
-16.016819 0.23087482 1.8245728 7
0.76326597 0.206936 1.8260115 5
0.65010434 0.42333159 1.8248646 3.25
0.72965074 0.49669442 1.8138645 4.5
0.78820926 0.52115732 1.8561124 5
0.55201459 -0.43873346 1.9506631 4.5049343
0.58129668 -0.35490775 1.9337845 6.25
0.6278829 -0.34330758 1.9763912 5.2799997
0.77597296 -0.34559149 1.9291379 4
-15.864104 -0.22392602 1.9338961 7
0.58809042 -0.23145276 1.9887464 4.5
0.64032483 -0.24067828 1.9606488 4.4058247
-10.781685 -0.15002315 1.9397784 7
-10.416139 -0.12730943 1.9253229 6.2222219
-10.214606 -0.10133171 1.9249604 5.1666665
-10.05223 -0.12873811 1.9979339 4.5384617
-9.9751177 -0.10976417 1.9467502 6
-9.0741272 -0.16429411 1.9342614 4.3333335
-8.9684124 -0.18027255 1.9677135 4.25
-8.8586626 -0.18006825 1.9566654 4
0.67722273 -0.1541263 1.9893366 5
0.74297822 -0.13650951 1.9654641 3.6508698
0.81186265 -0.10848837 1.9686985 3.4761906
-15.92893 -0.0095492899 1.946774 7
-15.872988 -0.0097893216 1.9817114 7
-11.126015 -0.0074415654 1.9651846 6
-10.992995 -0.024106916 1.9202384 6
-10.316616 -0.020111568 1.9022733 6
-10.232716 -0.040157724 1.9381113 5.6190476
-10.154199 -0.044905812 1.9514375 5.5
-10.010343 -0.05346588 1.9886358 7
0.68618077 -0.064871058 1.9102789 2
0.77835858 -0.053599704 1.9630177 5.310698
-11.120306 0.0047981665 1.9725614 6
-10.747334 0.010335676 1.9057062 6
-10.273632 0.014617801 1.9126847 6
0.81375289 0.0041659176 1.9227215 4.3333335
-15.998772 0.13936679 1.9155018 7
-15.58104 0.15593153 1.9393029 7
0.64267766 0.10647713 1.967108 3
0.71654379 0.18886393 1.9139839 7
0.84732723 0.14049192 1.9230336 4
-16.013628 0.21432939 1.9461148 7
0.66510731 0.45278788 1.9273503 4
0.54347223 -0.43179327 2.0141599 5.90625
0.57341737 -0.33196321 2.0505242 5.6428571
0.63585991 -0.33553705 2.072196 5.3333335
0.56005979 -0.26693037 2.018997 5
0.63179535 -0.25067446 2.0466406 4.1767139
-11.139091 -0.1134103 2.0312381 6
-10.463286 -0.14294176 2.0616536 7
-10.261564 -0.10878901 2.0340345 4.8888888
-10.198975 -0.11713384 2.0361605 6
-10.044179 -0.12111008 2.0691445 5.7222219
-8.9125233 -0.19297083 2.0629573 6
0.65934956 -0.17072068 2.0333974 4.5714288
0.73386216 -0.13459413 2.0497015 5.2166667
0.82487392 -0.11135975 2.0555711 3.25
-15.982184 -0.05124579 2.0272763 7
-11.205517 -0.01049237 2.0110729 6
-11.181665 -0.028782811 2.0141096 6
-10.895233 -0.089604348 2.0655062 5.75
-10.525318 -0.095194407 2.0912304 6
-10.216272 -0.09513402 2.0444937 7
-10.150112 -0.076601721 2.024756 7
-10.041851 -0.078952499 2.0324249 6.458333
0.6710245 -0.06724973 2.0503423 3.625
0.72211796 -0.0042948946 2.0435147 7
-15.985705 0.021845454 2.0391774 7
0.61463469 0.05159989 2.0526865 1.9931035
0.70772016 0.064310618 2.08038 3.146636
0.81767255 1.8253922e-06 2.0439036 4
-16.009161 0.18868041 2.0210094 7
0.67135733 0.13420539 2.0877683 4.3888888
0.75222564 0.18913767 2.0660732 5
0.81772327 0.14303927 2.0124435 4
-16.012405 0.21905175 2.0880849 7
0.78373659 0.51503301 2.0903766 5.2222223
0.56681174 -0.36924127 2.1588519 6.7326889
0.6483044 -0.37290016 2.154902 4.7555556
0.62971991 -0.2401537 2.1581554 5.6815848
0.71890926 -0.23427233 2.1529796 6.54
0.83069909 -0.22006291 2.1624348 3
-15.233088 -0.10816532 2.1117487 7
-14.40287 -0.18687904 2.1874056 7
-10.585089 -0.12362739 2.1241045 5.6666665
-10.440662 -0.10932018 2.1629739 6
-10.288282 -0.13184704 2.1120358 5.25
-10.156322 -0.10458484 2.161361 6.3000002
-10.050708 -0.14828125 2.1433592 5
0.66468173 -0.15826792 2.1486316 3.4704545
0.72005159 -0.17683536 2.1595621 5.4574208
0.84584844 -0.13377789 2.1723416 3.534091
-11.140709 -0.050049938 2.1250808 5.5999999
-10.321812 -0.021772394 2.1625142 5.875
-10.221226 -0.055411007 2.1322107 5.5
-10.160509 -0.021557946 2.1297088 6.1999998
0.63992226 -0.066113785 2.1233799 2.9642856
0.72538519 -0.025511205 2.1875415 6.75
0.85873508 -0.098118685 2.1528072 3.3599999
-11.149311 0.071246564 2.1366179 7
-10.22128 0.0098576322 2.1015041 6
0.77730978 0.066408396 2.1546357 4.2440157
-16.00359 0.19414446 2.1855602 7
-15.971755 0.1186533 2.1360066 7
0.71508473 0.13314877 2.1162815 5.5
0.82754815 0.13001528 2.1342688 4
-15.990273 0.22399344 2.1711879 7
0.77287459 0.52783257 2.157603 5.5
0.5872528 -0.35323086 2.2315402 7
0.65492809 -0.33117872 2.2586412 6.4444447
-8.889266 -0.22955662 2.2981906 6
0.67980719 -0.23792852 2.2508581 4.7771134
0.72851384 -0.269997 2.2447186 6.1500001
0.84361589 -0.24541567 2.2220359 4
-15.96079 -0.12261517 2.2459221 7
-10.702699 -0.11952701 2.2114372 7
-10.463742 -0.10916881 2.249032 7
-10.333021 -0.10296018 2.2951155 5
-10.257605 -0.11281836 2.2224278 5.3504276
-10.14182 -0.11952046 2.2468128 5.1168833
-10.066345 -0.11497998 2.2484446 5.6527781
0.64144671 -0.18398912 2.2874782 5
0.72692347 -0.16638486 2.231081 6.2549019
0.80498481 -0.12127846 2.2339878 3.7391305
-15.991117 -0.0081302021 2.28971 7
-15.827093 -0.023295879 2.2103424 7
-11.093748 -0.014164589 2.2922516 6
-10.998087 -0.0087865964 2.2039003 6
-10.212055 -0.084861174 2.2885504 5.8333335
-10.16463 -0.045523126 2.2569022 6.5555553
-10.050865 -0.080583557 2.2624149 5.625
-9.9981937 -0.088053226 2.2860606 6
0.78355777 -0.099419013 2.2646272 4.1588783
0.82656837 -0.064974293 2.251461 4.3028278
-14.17462 0.044081498 2.224226 7
-10.999619 0.023408202 2.2233243 7
-10.198369 0.0048385412 2.2749252 6
0.68160653 0.00092691556 2.2008712 7
0.84275436 0.040577188 2.2827497 4
-15.989056 0.14908825 2.2218132 7
-15.505019 0.1527372 2.2840943 7
0.73188639 0.15487811 2.2055407 6.5
-15.995046 0.20721003 2.2494755 7
0.74657917 0.28531727 2.2947636 7
0.58453465 -0.37702316 2.301327 7
0.62215304 -0.35403502 2.3282804 6.3120465
0.72512257 -0.37142852 2.3335576 5
-8.9678383 -0.23418862 2.3839989 6
0.65656531 -0.23108353 2.3622353 6.126667
0.7349906 -0.2694889 2.3461354 6.1548438
-15.930937 -0.165654 2.3595357 7
-11.464421 -0.16205633 2.3375049 7
-10.717031 -0.14078838 2.3505688 7
-10.524096 -0.15433289 2.3362932 7
-10.458288 -0.11744659 2.3539996 5
-10.031924 -0.11323661 2.3488178 5
0.64262003 -0.19242343 2.3068135 2
0.7186293 -0.17082165 2.3621159 5.6666665
0.86308473 -0.15743037 2.3672013 4
-11.219538 -0.060728054 2.3750601 6
-11.1242 -0.049888037 2.3210049 6
-11.002935 -0.044137634 2.3391171 5.75
-10.351738 -0.036156576 2.3964014 7
-10.143133 -0.0586209 2.3669505 6.25
-10.061444 -0.073767386 2.313689 6.3333335
0.69159603 -0.034498021 2.3128204 1
0.73839492 -0.03230308 2.3502467 4.875
0.82042718 -0.0088002458 2.3531923 7
-11.063984 0.066352338 2.3759446 7
-16.001923 0.18758054 2.3400776 7
-15.973271 0.13942628 2.3659344 7
-15.998792 0.22220016 2.3442171 7
0.65641415 -0.42018819 2.4253047 5
0.61171937 -0.3322767 2.4099698 6.8000002
0.71584523 -0.33822107 2.4635963 6.7222223
-8.905117 -0.2124172 2.4970012 6
0.65605766 -0.24982077 2.4324408 5.65523
0.7280612 -0.25182649 2.4269085 5.1666665
0.81638145 -0.23889068 2.4919827 3
-15.906099 -0.13288279 2.4642379 7
-10.093204 -0.10485925 2.480113 6
0.65511394 -0.14487171 2.4982827 4.5769234
0.72296053 -0.16875516 2.4670088 3.6666667
0.81949425 -0.14355853 2.4048338 2.4583333
-15.965592 -0.040822711 2.4921727 7
-10.3867 -0.0090469196 2.4418871 6
-10.25736 -0.032970265 2.4214821 5.875
-10.147424 -0.034607209 2.4482787 6.5
-10.05017 -0.053710859 2.4502406 6.4000001
0.6492728 -0.033005789 2.4157934 2.3333333
0.74018645 -0.062789641 2.4897351 4.5
0.83864743 -0.072750069 2.4852242 3
-15.96287 0.023663351 2.4730201 7
-10.271126 0.0096542891 2.4114504 7
0.65118098 0.038038716 2.4118199 2.5526316
0.74738276 0.031986855 2.4332433 5.4621029
-15.976007 0.14549145 2.4685645 7
-15.44221 0.15088409 2.4511251 7
0.649854 0.16351414 2.4039018 5
-15.981909 0.21671504 2.4815242 7
0.75231528 0.28399751 2.4424024 7
0.52076912 -0.40067819 2.5387611 6.090909
0.63956457 -0.41549072 2.5352433 6.3333335
0.52725077 -0.38954055 2.5373034 6.130435
0.61716819 -0.33346441 2.5791142 5.8888888
0.65545613 -0.24942726 2.5785992 2.6492374
0.74085343 -0.2420615 2.5606821 4.8853178
0.83739573 -0.22941121 2.548382 3.9387255
-15.949264 -0.10629891 2.5995789 7
-10.626387 -0.10334873 2.5970993 7
-10.473635 -0.10492837 2.5497212 6
-10.052663 -0.12057953 2.5248277 5.3125
0.6992389 -0.16632187 2.5791202 2
0.7427873 -0.15497403 2.5423193 5.2582455
0.81869 -0.1386122 2.536788 3.3333333
0.90478408 -0.14887904 2.5626042 3
-15.98843 -0.0044602547 2.5247378 7
-11.077377 -0.011681654 2.5380559 6
-10.876657 -0.083289608 2.5523412 5.875
-10.651024 -0.091541611 2.5964022 7
-10.369655 -0.085463144 2.5412545 6
-10.251608 -0.082217917 2.5435295 5.3333335
-10.139813 -0.079900257 2.532717 5.830688
-10.035461 -0.079590738 2.5163319 6.6666665
-9.9833946 -0.070473626 2.5668223 7
0.68647623 -0.0097450018 2.5004473 3.0434783
0.78427684 -0.088897459 2.5642743 5.5999999
0.82481313 -0.082759231 2.5680828 3.5999999
-10.987106 0.0033174083 2.550344 6
0.71274465 0.043327671 2.5865481 5.8000002
0.8366859 0.047224618 2.554528 4.5090909
-15.975906 0.18806522 2.5521049 7
0.78156316 0.17822893 2.5382338 5.25
-15.977114 0.22054656 2.566359 7
0.75459456 0.28291467 2.5534494 7
0.71825409 0.30125853 2.5603189 7
0.74533892 0.50294137 2.5296519 5.5500002
0.67425019 -0.42129329 2.6649973 6.3333335
0.86799347 -0.40369922 2.6802254 4
0.65515763 -0.3488676 2.6640489 6.5
0.73549807 -0.33870369 2.67416 6.3846154
0.66880161 -0.22729352 2.635046 5.4416666
0.72778815 -0.2336987 2.653326 5.5631313
0.80738324 -0.24684826 2.6669796 3.5999999
0.92713493 -0.24318175 2.6422167 2.3095238
-15.897556 -0.12317168 2.6849024 7
-10.853559 -0.11607383 2.6448283 7
-10.638681 -0.12144826 2.6448529 7
-10.507802 -0.13229206 2.6854177 7
-10.44811 -0.14964807 2.6867609 7
-10.160561 -0.12712494 2.6247213 4.8076925
-10.076341 -0.11948092 2.6553469 5
-9.9430113 -0.14177091 2.6622128 5
0.63969964 -0.1864019 2.647635 3.1111112
0.75647354 -0.14875925 2.6505847 4.6619043
0.81340575 -0.11210458 2.628757 4.1627045
-11.065037 -0.016350538 2.6070879 6
-10.984489 -0.021431461 2.628171 6
-10.230993 -0.027234877 2.6241994 6
-10.127076 -0.032061249 2.6460955 6.2028985
-10.060659 -0.069335364 2.6284389 6.625
0.63806802 -0.073395982 2.6722867 5.0833335
0.73801076 -0.058653176 2.6422856 5.895833
0.83053368 -0.066964045 2.6747143 5.0555558
0.91925716 -0.01025711 2.6605377 3.5
-15.933475 0.0091504417 2.6675 7
-11.12645 0.080121905 2.6714466 7
0.75718439 0.075270355 2.68537 4.6666665
0.91454649 0.078147665 2.6762648 4
-15.961503 0.1439849 2.649749 7
0.65938312 0.12544332 2.644701 4.7777777
0.76927924 0.17401731 2.6443882 7
0.59828663 -0.39132601 2.7148933 6.304348
0.67275864 -0.33670995 2.7539186 6.3259258
0.71042138 -0.36106527 2.7340426 6
0.81953192 -0.3396166 2.7082448 4.8000002
0.68838125 -0.26171961 2.7604091 5.9081635
0.75729078 -0.23305748 2.7313442 4.2312441
0.85156804 -0.24790275 2.7642636 3.625
0.9079349 -0.27510241 2.7624331 3
-14.998265 -0.15746289 2.7333474 7
-11.465294 -0.11593578 2.7020307 6
-10.832172 -0.10748978 2.7931416 5.8000002
-10.557642 -0.13766512 2.7968965 7
-10.067373 -0.13535917 2.7203884 5.5999999
0.75083196 -0.14322208 2.7502594 4.8626547
0.85762179 -0.15779647 2.7708459 4.5
-11.169718 -0.0020384565 2.7148967 6
-10.227808 -0.079012521 2.7612131 7
-10.125145 -0.09747231 2.7580199 5.5882354
-10.036979 -0.077257723 2.7591252 6
0.39187732 -0.091839522 2.7557173 6
0.43227172 -0.054029163 2.7353091 7
0.75812048 -0.061020911 2.738596 4.8482885
0.83067912 -0.029924117 2.7592399 6.1666665
-15.928202 0.010606211 2.7465739 7
-10.218564 0.0038948343 2.7033124 7
0.44251251 0.031090984 2.7671738 6.8333335
0.53529173 0.090804532 2.7704749 7
0.71293706 0.028284661 2.7785337 5.5
-15.965201 0.15458006 2.7605705 7
0.43751255 0.15603967 2.7853105 6.5
0.748106 0.12078957 2.7615101 5.8333335
-15.976001 0.21849413 2.7921467 7
0.64646637 -0.40839142 2.8064899 6.3428574
0.71793652 -0.41150239 2.8781729 6.4000001
0.59768248 -0.33606395 2.8168612 6
0.64409703 -0.34924534 2.8536994 6.3479171
0.74754333 -0.32627907 2.8221152 3.5333335
0.58736944 -0.28474271 2.850368 6
0.67741251 -0.26337242 2.8348944 4.8080807
0.73680413 -0.25146785 2.8282318 4.0456138
-10.891132 -0.12253068 2.842176 7
-10.764775 -0.10945016 2.8643038 6
-10.442903 -0.12776303 2.8509903 7
-10.135357 -0.12644173 2.8396339 5.5666671
0.75057232 -0.14690673 2.8574274 4.8678141
-15.946371 -0.032089155 2.8904309 7
-11.318427 -0.012727067 2.8900447 6
-11.260241 -0.088149175 2.8326445 6
-11.168522 -0.023022361 2.8715487 6
-10.784225 -0.095283635 2.8345513 6
-10.367378 -0.027244991 2.8569422 5.8611112
-10.15371 -0.034342155 2.8622441 6.75
-10.060701 -0.03752929 2.8594244 6.5
0.728549 -0.070686601 2.8685818 6.6666665
0.84607482 -0.047173131 2.8385267 4.8333335
-15.955447 0.012659907 2.8336716 7
0.43505025 0.042044669 2.8242841 6.666667
0.68446004 0.09254621 2.8398664 5.5
0.75807899 0.018334255 2.8295486 4.0650792
-15.967868 0.16248797 2.856427 7
-15.380135 0.14800344 2.8204665 7
0.43238267 0.1371235 2.8196986 6
-15.965384 0.21988314 2.8231707 7
0.44009763 0.20638523 2.8462005 7
0.75017452 0.27997202 2.8215356 7
0.75486445 0.51615196 2.8998957 6
0.63426971 -0.41663519 2.9366846 6.7999997
0.58056307 -0.34674013 2.9278066 7
0.62508446 -0.34140292 2.9659019 5.8328924
-9.5662003 -0.20514899 2.9042192 6
-9.074297 -0.20459624 2.9238014 6
-8.9572887 -0.2037579 2.911057 6
0.65676022 -0.23570502 2.9585838 5.534884
0.74038148 -0.24250872 2.9405549 4
-15.942614 -0.12572594 2.9107282 7
-10.136586 -0.11955351 2.9821291 5.4666667
-9.9483967 -0.13148075 2.9494157 5.5
0.65990728 -0.16395308 2.931823 4.5
0.74251395 -0.15680157 2.9415429 4.0587482
-11.26899 -0.062832117 2.9183402 6
-11.037678 -0.0084355175 2.9636316 6
-10.98773 -0.023010992 2.9967618 6
-10.150397 -0.036605153 2.9810846 6.4117646
-10.065445 -0.082530558 2.951 6.3333335
0.68715888 -0.073949724 2.9482245 5
0.7197488 -0.050181232 2.9630551 6.125
0.84529853 -0.097041011 2.9879932 6
-15.963583 0.0016484763 2.9272606 7
-14.178308 0.034609023 2.9691968 7
-15.949628 0.17111818 2.970691 7
0.67414236 0.13479127 2.9434392 5.0740743
-15.961727 0.21395388 2.9277537 7
0.70903277 0.29654157 2.9061003 7
0.58433884 -0.3591111 3.0767713 6.5066667
0.63541764 -0.33614388 3.0616064 6.6000004
0.58933306 -0.29396096 3.0005803 7
0.65351093 -0.2361645 3.0560851 5.5999999
0.75815791 -0.20805562 3.0627556 2
-15.22901 -0.18919364 3.0409737 7
0.66689318 -0.17463613 3.0411294 3.4436417
0.7274211 -0.14891788 3.0676043 4.2720437
0.8542437 -0.13515373 3.0111585 6
-15.945447 -0.098781824 3.0078011 7
-15.876264 -0.097226694 3.0545239 7
-11.362396 -0.065893531 3.0509863 6
-11.257329 -0.03826037 3.0325449 6
-10.596848 -0.088828243 3.0399196 6
-10.460619 -0.065651968 3.014837 6
-10.367781 -0.013098896 3.0828362 5.8461537
-10.254513 -0.033647675 3.0378568 6.2121215
-10.1868 -0.089746222 3.0091925 5.75
-10.06108 -0.088241458 3.0985923 7
0.7397334 -0.058124024 3.0632949 5.0148149
0.8703258 -0.023570172 3.0177369 6
-11.042968 0.056439493 3.0200078 7
0.65556121 0.052457273 3.0476279 4.5500002
0.71691048 0.02443631 3.0600355 4
-15.937929 0.12719269 3.0681031 7
-15.620471 0.14953977 3.0115867 7
-15.232206 0.14428243 3.0410931 7
-15.189364 0.12886027 3.0383317 7
-15.954449 0.22613983 3.0642974 7
0.65429223 0.20930432 3.0775123 6
0.6659584 -0.3505345 3.1416194 6.3132272
-15.074354 -0.22152376 3.1182699 7
0.65398979 -0.25783926 3.1602538 4.8666663
-15.44162 -0.10850174 3.1865761 7
-10.224704 -0.10098322 3.1737602 5.125
-10.123627 -0.11902274 3.1441073 5.7187815
-9.9677734 -0.15985966 3.142267 6
0.67198116 -0.15778275 3.1388423 5.3333335
0.74053514 -0.14601956 3.1381407 4.5
-15.417487 -0.090789348 3.1499467 7
-11.018821 -0.026959993 3.1503072 6
-10.447878 -0.0031853393 3.1745057 6
-10.314384 -0.051907673 3.1126313 5.6923075
-10.245633 -0.018960066 3.1993918 6
-10.149415 -0.058813035 3.1507645 6.75
-10.097456 -0.07384409 3.1398649 7
0.65900248 -0.042983562 3.1372838 4
0.74770403 -0.08767511 3.1323285 4.1785717
-15.904335 0.017585035 3.1323712 7
-11.121326 0.074970707 3.1378841 7
0.72830856 0.067700699 3.174366 5
-15.947577 0.16221425 3.1454451 7
0.66053784 0.16499886 3.1694248 5.5
-15.953896 0.21364175 3.14937 7
0.57661152 -0.45588303 3.2027328 6
0.64315891 -0.44389382 3.2559621 6.4285712
0.64639384 -0.34600392 3.2453148 6.7530861
0.71371055 -0.37706918 3.2488766 7
-8.6801796 -0.21953338 3.2236261 6
-8.4726496 -0.24593003 3.2221508 6
-8.3102999 -0.2459466 3.2218294 6
0.58347094 -0.22261579 3.2271805 2
0.67552066 -0.22890733 3.2680295 7
0.72037756 -0.24441683 3.2457557 6.1002603
-14.964085 -0.17255959 3.288835 7
-11.215126 -0.10628171 3.2166305 6
-10.768652 -0.10706724 3.2653694 6
-10.495811 -0.11359663 3.2376456 5.5
-10.243973 -0.10441092 3.2637424 7
-10.14018 -0.12290083 3.2180138 5.2857141
-9.6048145 -0.16598801 3.2724717 6
-9.5122643 -0.16346253 3.215843 6
0.73110342 -0.15505369 3.2694542 6.0084653
0.81032395 -0.10138084 3.2109776 4.5999999
-11.30687 -0.08942765 3.2058554 6
-10.25255 -0.094394118 3.2726924 6.5
-10.101799 -0.058741149 3.2168961 7
-10.084215 -0.076112203 3.2278152 6.4499998
-15.92083 0.026278937 3.2502179 7
0.75458992 0.0064452365 3.2673147 7
-15.927662 0.11415512 3.2956502 7
0.76549137 -0.43765682 3.3526883 6.5
0.64425141 -0.35110185 3.3471751 6.5607142
0.72841054 -0.33826306 3.3767359 6.8333335
0.82475615 -0.33474505 3.3669469 5.3333335
-8.9029961 -0.22391091 3.3190227 6
0.64113832 -0.25045156 3.324008 7
0.72046947 -0.24529558 3.3463073 6.5
0.84168768 -0.27105066 3.3529758 4.875
-10.030899 -0.1013661 3.3430829 6
0.77490276 -0.17434135 3.377316 3.9473684
0.81322229 -0.14817956 3.3498111 4.1970148
-10.959187 -0.057595234 3.3083692 6
-10.229704 -0.03373912 3.3457129 6.416667
-10.165686 -0.070173822 3.3655262 6.5
-10.051258 -0.078054637 3.3559275 6.5
0.7556926 -0.062235035 3.3229408 5.9000001
0.8419885 -0.04035515 3.379473 6
-15.214844 0.0092403796 3.3983917 7
0.78766495 0.036044613 3.3899024 5
0.851448 0.03079845 3.3705513 6
-15.935177 0.16736254 3.3603277 7
-15.040601 0.12252136 3.3754332 7
0.72684562 0.10772741 3.3377218 5
-15.934475 0.21094905 3.3967104 7
0.77619314 -0.42961514 3.4169214 6.347826
0.65545928 -0.34326163 3.4244404 6.8066664
0.78983021 -0.32395965 3.4263775 6.7407403
0.81967759 -0.30232972 3.4556897 6.0625
0.75753069 -0.24906561 3.4474359 4.2111111
0.80926937 -0.23122752 3.4476213 2.25
-11.000266 -0.15309849 3.4611692 7
-10.218233 -0.13614419 3.4641294 5.625
-10.130911 -0.13019662 3.4153488 5.6427436
0.78316003 -0.11903557 3.4205792 1.5
0.85519004 -0.17011301 3.4627564 5.3185182
-15.201554 -0.017548125 3.4179223 7
-15.077141 -0.081913769 3.4532557 7
-11.33811 -0.023549855 3.404953 6
-10.537107 -0.086475678 3.4920006 6
-10.424978 -0.097301498 3.4883747 6
-10.339655 -0.034715876 3.4556761 6
-10.228945 -0.077781774 3.423656 5.3333335
-10.127863 -0.044535935 3.4581025 7
-10.018959 -0.088690057 3.4369144 6
0.7718513 -0.052383553 3.4570262 5.4040399
0.81353992 -0.022790518 3.4360285 5.9083338
-15.888977 0.023889553 3.4915595 7
-14.857593 0.05881685 3.4028988 7
0.79298222 0.014677819 3.4028428 7
-15.927333 0.15490146 3.465281 7
-15.110209 0.13938822 3.427928 7
0.77880955 0.10250062 3.4222841 6
-15.933696 0.22423565 3.414788 7
0.7107904 -0.40056837 3.5080261 6.5
0.85428619 -0.44820175 3.5651326 5
0.76561743 -0.35545611 3.5622647 6.2075
0.81907797 -0.36067152 3.5672154 6.3333335
-8.352541 -0.23761691 3.54421 6
-8.2902746 -0.23811357 3.5461645 6
0.75604004 -0.22451527 3.5154123 6
0.82899129 -0.2813842 3.5616591 6.431818
-15.1402 -0.10553555 3.5896113 7
-10.74939 -0.12357994 3.5898738 7
-10.104812 -0.10234523 3.5762711 5.5
-10.084448 -0.13722309 3.5034456 5.5999999
0.76607126 -0.15591659 3.5546305 4.728261
0.82858753 -0.17127493 3.5357254 4.3203802
-11.233541 -0.088667169 3.5368586 6
-10.994482 -0.019185081 3.5759053 6
-10.878565 -0.013643116 3.5761938 6
-10.791911 -0.076379165 3.500082 6
-10.50447 -0.080434524 3.5028658 7
-10.344156 -0.032117181 3.5980802 6
-10.262855 -0.0096124131 3.5103478 7
-10.144112 -0.083206035 3.5736969 6.0994148
-10.04104 -0.072515324 3.5550411 6.8000002
-9.9815407 -0.077573664 3.517447 6.333333
0.78740788 -0.060668085 3.5185666 6
0.80848527 -0.075946718 3.5194254 4.75
-15.90857 0.070457309 3.5416427 7
-15.895126 0.010024434 3.500845 7
0.76612538 0.060905799 3.5497665 5.5999999
0.8091321 0.044356287 3.5191078 5
-15.928198 0.1493222 3.5389912 7
-15.018977 0.13740586 3.5292764 7
0.81218171 0.10790106 3.5453994 6
-15.935638 0.21127188 3.560365 7
0.77217627 0.35891938 3.5571904 5
0.81517792 -0.42016029 3.6422322 7
0.68134952 -0.36138356 3.6661186 6.5
0.7580955 -0.35262126 3.6534209 6.3888888
0.83176255 -0.35263038 3.6375415 6.6062498
0.68224883 -0.25543213 3.6607819 7
0.7678073 -0.25644028 3.6802752 6.3425927
0.83377105 -0.25079313 3.649596 5.6095195
-10.892839 -0.15647757 3.6361837 7
-10.773547 -0.12196608 3.6945882 7
-10.111925 -0.10391291 3.6816688 7
-10.051626 -0.11186226 3.6245441 5.7777777
-9.1281509 -0.18730623 3.6719716 6
0.78113663 -0.13833357 3.6071153 6
0.84869576 -0.1623439 3.6589017 3.9983478
-15.075367 -0.095413037 3.6765783 7
-11.135864 -0.022930197 3.6456997 6
-10.854031 -0.079232559 3.6820118 6
-10.724245 -0.082862742 3.6799872 5.5
-10.42723 -0.097148731 3.6585648 6
-10.375141 -0.0090220794 3.6240964 6
-10.27921 -0.094164595 3.641026 6
-10.046606 -0.076740354 3.6591113 6.75
-9.9782896 -0.053956084 3.6766353 7
0.77673024 -0.089704208 3.6075947 4.2307692
0.81107795 -0.07631135 3.6832967 4.405797
-15.896262 0.027397046 3.6997206 7
0.80388004 0.041961823 3.6896684 5.6666665
-15.922773 0.16734886 3.6439557 7
-15.188244 0.19385585 3.6851113 7
0.80580115 0.17435333 3.6820555 6
-15.927696 0.20957273 3.6844907 7
0.76185471 -0.44248435 3.7506075 6.2576122
0.81877518 -0.42109475 3.7257063 7
0.75026822 -0.33797669 3.7218647 6.4024391
0.86624837 -0.37178349 3.7819209 5.7547169
-11.248096 -0.10733565 3.7027516 6
-11.108156 -0.11499764 3.7797146 7
-10.909718 -0.11590765 3.726054 7
-10.681704 -0.13174063 3.7818432 7
-10.046833 -0.11910456 3.7536347 5.9074073
-9.9740553 -0.13021195 3.7463522 6.1333332
-9.4856682 -0.16795433 3.7301178 6
-8.9527302 -0.19378391 3.7724087 6
0.79229689 -0.17954329 3.7943153 4.5614033
0.8379671 -0.15798555 3.7457035 4.5639024
-15.914715 -0.013653588 3.7660584 7
-11.317822 -0.071313381 3.727479 6
-10.34926 -0.074399635 3.7526867 6.5
-10.195151 -0.054245315 3.7573719 5.625
-10.031693 -0.045902066 3.7255616 7
-9.9713106 -0.091540739 3.7567711 6
-9.6865377 -0.081320822 3.7061832 7
0.81646681 -0.0088838339 3.7072916 4.4160585
-11.16935 0.075829469 3.7239532 7
0.78749573 0.046518065 3.7631168 7
0.80510467 0.047777947 3.7715864 5.5454545
-15.910852 0.12303971 3.7131164 7
-15.102676 0.11932354 3.7292216 7
-14.680131 0.12990527 3.7881804 7
-14.534855 0.10940146 3.7471669 7
0.79799318 0.17834559 3.7405806 7
-15.930883 0.20809922 3.7533278 7
0.7564851 -0.44547024 3.8278222 6.4375
0.75272131 -0.35709623 3.8462772 7
0.82751322 -0.360807 3.8389211 6.044445
-8.3474226 -0.20528968 3.8637383 6
-8.2869596 -0.20670322 3.8737872 6
0.76854467 -0.25023729 3.8025379 6.5
0.81443644 -0.28518188 3.8702569 7
-10.12556 -0.12769443 3.853174 7
-10.029415 -0.1362762 3.8610888 5.6785717
-9.9009504 -0.13243893 3.8781958 5
-9.5861807 -0.15382002 3.8742747 6
0.79412061 -0.18787152 3.8495274 5.1666665
0.83153987 -0.15410246 3.8670425 4.7349129
-10.607489 -0.089469977 3.8234046 6
-10.032785 -0.074318409 3.8808715 6.5
-9.9498262 -0.077529095 3.8433616 6.6666665
0.75374532 -0.079685666 3.8191843 6.5
0.80645108 -0.075300887 3.8238392 6
-15.871918 0.029949825 3.8465035 7
0.81632167 0.049315568 3.8460705 6.4473686
-15.91544 0.18505576 3.8591969 7
-15.896064 0.13204324 3.8480396 7
-15.209887 0.13746223 3.8257537 7
0.77120125 0.10766503 3.8490896 5.4000001
0.82120252 0.1722226 3.8881152 7
-15.906127 0.22135817 3.8758428 7
0.80114824 0.45289379 3.8907018 6
0.73550987 -0.44583008 3.9354334 6.3000002
0.76872522 -0.3521792 3.9381864 6.8012824
0.80281949 -0.37655634 3.9432158 7
1.284416 -0.3570694 3.9328518 6
1.3690274 -0.3379752 3.9589195 6
0.75460243 -0.27331409 3.9489181 7
0.82163709 -0.27070454 3.9548268 5.8920145
-11.131569 -0.10499106 3.9764664 6
-10.693151 -0.11826025 3.9576087 7
-10.545053 -0.12128507 3.9603438 7
-10.35038 -0.13166562 3.9741158 7
-10.289499 -0.14096379 3.9302137 7
-9.9349442 -0.10217756 3.9917898 6
0.75581992 -0.19457898 3.9332578 5.2857141
0.83294559 -0.1527123 3.9284887 4.1375365
0.90196502 -0.17325182 3.9310637 4.3540983
1.3832449 -0.10096356 3.9700749 5.6666665
-15.907227 -0.081680447 3.9633989 7
-14.814236 -0.069885358 3.9968362 7
-10.346792 -0.091946095 3.9481721 5.7142859
-10.190556 -0.029294759 3.9397736 5.9000001
-10.014592 -0.086979076 3.9008162 6
-9.9010773 -0.086373419 3.9873023 7
0.79240328 -0.092944302 3.951092 4.5739131
0.82342762 -0.003339842 3.9263415 5.1333332
1.2947687 -0.095193401 3.9930348 6
1.3255885 -0.066224933 3.9867842 5.75
1.4425635 -0.071985036 3.9554696 4.4000001
-15.916298 0.17440988 3.9334688 7
-15.891048 0.11618895 3.939811 7
0.77188361 0.12094142 3.9584661 5.6666665
-15.906233 0.20964622 3.9462147 7
0.76856625 0.22911188 3.9310515 6.5
0.83029819 -0.41528162 4.027112 6.65625
1.3717301 -0.41461325 4.0021462 6
0.54451084 -0.37917569 4.0745974 7
0.77383822 -0.34201354 4.0192142 5.9454298
0.82846165 -0.3371048 4.0816917 7
1.2313571 -0.3109633 4.0734911 6.125
0.73594487 -0.24893615 4.0079875 4.8648648
0.85852164 -0.24036956 4.0228629 5.7839675
1.2579743 -0.24450865 4.0686865 5.25
-15.850708 -0.10590072 4.0844736 7
-11.128612 -0.14163178 4.0783467 7
-10.622837 -0.11022411 4.065135 7
-10.257573 -0.13340737 4.0918479 7
-10.173947 -0.1096422 4.0516171 7
-9.9619598 -0.1147949 4.0907974 6
-9.4641342 -0.16291425 4.0603933 6
-9.0040627 -0.16596438 4.0395308 6
0.836739 -0.1533982 4.0634494 5.1596494
1.2474637 -0.14355209 4.0218997 5.75
-10.974964 -0.067631155 4.0311184 6
-10.861294 -0.024361573 4.0066476 6
-10.483902 -0.09916836 4.0403399 6
-10.246006 -0.016115367 4.0661001 6
-10.057479 -0.062532865 4.0229669 6.6666665
-9.9386377 -0.083280481 4.0403328 6.6666665
0.82358754 -0.059862629 4.0905066 4.0920243
1.2944183 -0.02696842 4.0266333 5.6666665
-15.862444 0.016985601 4.0036111 7
-11.070238 0.069398925 4.0728288 7
-10.143306 0.021518942 4.0057278 7
0.79099941 0.00042108074 4.0988264 7
1.3085943 0.03193289 4.0526762 5.4000001
-15.916151 0.17571954 4.0364614 7
-15.899065 0.15405834 4.0504923 7
-14.706562 0.18141145 4.0266504 7
0.8030746 0.11982113 4.0913615 5.6363635
-15.908925 0.20615476 4.0463753 7
0.39634609 -0.4030517 4.1762791 7
0.45603466 -0.40584832 4.1416712 7
0.53057814 -0.44786334 4.1416397 6
0.61571956 -0.41428053 4.1538472 6.3125
0.81914973 -0.41474038 4.1872988 6.25
0.46223149 -0.34066504 4.1654902 6.8000002
0.56752855 -0.3522273 4.1632094 5.7182541
0.60425973 -0.34578571 4.1596065 6.090909
0.76234412 -0.35536331 4.1229734 7
0.85454988 -0.35161123 4.1426482 6.1946616
0.4723846 -0.22519074 4.1890507 6.4065042
0.55777985 -0.24419737 4.1669893 4.0238099
0.64160132 -0.28806585 4.1492081 6.5
1.0843923 -0.20192349 4.1530285 5
-10.667923 -0.10608985 4.1815782 7
-10.231001 -0.10386391 4.1315336 7
-10.122097 -0.11170945 4.148448 6.625
-10.007305 -0.10690066 4.1299624 7
-9.9638224 -0.10356532 4.144351 7
-9.8513241 -0.13571914 4.134943 6.333333
-8.9229317 -0.17007224 4.1067276 6
0.46780962 -0.14869872 4.1162262 6.5
0.54591876 -0.16948374 4.1652408 6
0.60962856 -0.17561412 4.1350074 4.7580419
0.70411289 -0.14288425 4.1289811 4.4035087
0.84936219 -0.14770289 4.1677313 5.5098038
1.2548635 -0.10388709 4.149045 5.6666665
-15.903534 -0.0050961785 4.1903939 7
-11.153528 -0.082253136 4.1266928 6
-10.367271 -0.084925301 4.1579628 6
-10.210133 -0.067470074 4.1412797 6
-10.177158 -0.086152196 4.1102777 5.75
-10.065527 -0.089510463 4.1598358 6.5
-9.940567 -0.059139192 4.1498728 6
0.47662365 -0.064505517 4.1914253 3.9265537
0.56750458 -0.065454729 4.1731539 5.7142859
0.6212405 -0.077555478 4.1825738 5.5
0.82758111 -0.025894066 4.1127129 5.9438205
1.2332153 -0.04114598 4.1631727 5
-15.872048 0.028254682 4.1553459 7
-10.040748 0.015779298 4.1989317 7
0.54348838 0.068218082 4.1629324 6
0.62155843 0.074364841 4.1984625 5.3164558
0.82118464 0.014528929 4.1302509 6.1454544
1.1043572 0.02201201 4.1490788 5.5
-15.888795 0.16609609 4.1613879 7
-14.876116 0.13012764 4.1063375 7
-14.645872 0.12635119 4.1416936 7
-14.537724 0.10433634 4.1432238 7
0.52538872 0.14964423 4.1877728 6
-15.89587 0.20879427 4.1774607 7
-0.36494219 -0.42410168 4.288003 6.3562498
-0.29162574 -0.41026121 4.2970853 6.4000001
0.39641774 -0.43268406 4.2581863 6.3428574
0.41682434 -0.41384244 4.2036133 6.3333335
0.74520528 -0.44075501 4.2475262 6.3153591
-0.45193121 -0.33924371 4.2752976 6.7532468
-0.35075417 -0.34831306 4.2744408 6.0282831
-0.24703759 -0.33418813 4.2622423 5.6726956
-0.14825809 -0.33281246 4.2581096 5.4787879
-0.092751741 -0.36645764 4.2538447 5.5
0.28324541 -0.3523117 4.2540755 6.5837173
0.34057778 -0.35605657 4.2574286 6.4419217
0.43848133 -0.34222013 4.2479429 6.3503203
0.58398223 -0.33751643 4.2551355 6.3846154
0.82295007 -0.36329493 4.2185016 6.6666665
-9.9961309 -0.21661872 4.2910957 7
-0.42647958 -0.29886773 4.2598076 7
-0.33741251 -0.25502512 4.2646222 5.4621792
-0.26078519 -0.2531513 4.2621393 4.9253631
-0.19385612 -0.21334727 4.253314 1.5
-0.049565732 -0.24328209 4.2854772 6.5
0.35423893 -0.2497108 4.2728424 5.049202
0.45126411 -0.25653788 4.2325034 5.991703
0.53696597 -0.23339315 4.2268209 4.6487179
0.69798267 -0.27943817 4.2089548 5.280899
0.81926531 -0.23734806 4.2517018 6.2674422
-15.861983 -0.15411846 4.2476015 7
-10.286024 -0.10971851 4.2805638 7
-10.088358 -0.12649579 4.2281876 7
-9.931181 -0.14173746 4.2491493 6
-4.9096551 -0.13698578 4.2977247 6
-0.41973478 -0.15464063 4.2989779 4.6666665
-0.33520412 -0.16016915 4.2676625 5.0027175
-0.25281379 -0.14055197 4.2774754 4.0917597
-0.17095686 -0.16753837 4.268178 4.4958048
-0.092578053 -0.16396782 4.2509303 7
0.3620832 -0.16878623 4.2907591 4.0456476
0.4462038 -0.15905236 4.2413521 5.0777621
0.55136907 -0.14980234 4.2421622 4.2374525
0.64905167 -0.15272029 4.2074013 4.8130083
0.82886147 -0.15207352 4.2401838 5.1152778
0.91379285 -0.15213042 4.267642 4.8024693
-11.052207 -0.032449938 4.2545443 6
-10.342746 -0.072476119 4.2620769 6
-10.142196 -0.082389966 4.2616992 5.8000002
-10.016427 -0.095234297 4.2468061 5.4705882
-9.9728003 -0.056459699 4.248476 7
-9.8604393 -0.079269946 4.2798653 6
-0.40973717 -0.098521806 4.2510085 4.6513762
-0.30497032 -0.052992009 4.2892528 4.5943398
-0.25214466 -0.086165071 4.2381949 5.6278319
-0.15049207 -0.049262892 4.2417698 5.5
0.4350408 -0.038606804 4.2401032 4.9069419
0.55617493 -0.060221236 4.2233567 5.25
0.62475419 -0.091408901 4.2817717 6
-15.856649 0.03634211 4.2325044 7
-0.40417641 0.09729217 4.2898216 5.8333335
-0.24375753 0.070284806 4.2901525 5.4936361
0.39387098 0.04316923 4.2632213 5.0799999
0.44425941 0.055043489 4.2797327 5.818182
0.54376554 0.016334444 4.2237968 6.5
0.77729219 0.052909315 4.2737551 5.7941175
0.91933906 0.088295028 4.2923093 5.5
-15.881159 0.14029604 4.2690091 7
-14.784382 0.18092716 4.2668972 7
-0.32768556 0.1051417 4.295948 5.7763157
0.36082131 0.11521551 4.2875695 5.7823429
0.47905585 0.12980987 4.2181492 5.8095236
0.53166318 0.14053677 4.2083893 6.25
0.62296313 0.10673811 4.233336 5.7037039
0.50094032 0.28271094 4.2114067 7
-0.27831751 0.33234888 4.287467 5.7538462
0.44971961 0.39171699 4.2624226 5.8636365
0.60371828 0.34890375 4.2745342 5.5
0.82292163 0.3729254 4.2267256 5.5714288
0.82525486 0.42969561 4.2642069 6
0.80265856 0.56901526 4.2128601 7
-0.51196593 -0.43371299 4.3618269 6.2991452
-0.48217678 -0.43021917 4.34693 6.3121696
-0.27643204 -0.41625327 4.3245392 6
0.17415798 -0.4251188 4.3625803 6.277174
0.23533256 -0.4307754 4.3587403 6.335115
0.90019727 -0.40054047 4.3346448 5.734694
-4.9546089 -0.31376198 4.3958454 6
-0.53329229 -0.30198058 4.3998613 7
-0.46036202 -0.35121498 4.3278699 5.9793649
-0.35101786 -0.33304814 4.3169765 6.6176472
-0.092495441 -0.34068793 4.3589163 4.5
0.13930602 -0.36197957 4.3709021 6.5749998
0.23587508 -0.33743986 4.3537478 6.8854165
0.32983321 -0.34104705 4.3201842 6.3884616
0.64431143 -0.34672448 4.3120346 7
0.76511592 -0.35192895 4.3539791 6.8928571
0.80600357 -0.342253 4.3751369 6.3076925
-5.8526378 -0.22878021 4.3832536 4.5
-5.0387888 -0.2224803 4.3744192 2.5
-4.936348 -0.22913913 4.3619838 5.0999999
-4.8919749 -0.28886068 4.3670702 6
-0.53046405 -0.25667793 4.3612418 5.5
-0.45877239 -0.24748611 4.3543878 5.7811017
-0.39671326 -0.28865558 4.3085732 6.2222223
-0.26658261 -0.25918037 4.3206635 7
-0.12094104 -0.23928039 4.3286443 5.0833335
-0.079755329 -0.23428848 4.3495731 4
0.19719589 -0.20283553 4.3153429 5.2842107
0.28554186 -0.24940704 4.3370199 5.5915403
0.30596685 -0.26919967 4.3473186 6.25
0.65174484 -0.25665826 4.3390317 5
0.71272212 -0.21433774 4.3970342 4.5
-15.85927 -0.10204513 4.3440104 7
-10.90972 -0.10594167 4.3469558 7
-10.139264 -0.10050102 4.3968954 7
-10.038737 -0.11992928 4.3802872 6.8095241
-9.9635172 -0.12824982 4.3268247 7
-9.5234337 -0.17501564 4.3329825 6
-5.8404431 -0.1516439 4.3853669 5.5
-5.6436157 -0.1320812 4.3949523 5
-5.5384994 -0.15489458 4.3708949 4
-5.2605934 -0.14195034 4.3912926 6
-4.9163127 -0.14761712 4.3654079 5.375
-4.8850017 -0.13425325 4.3454251 6.25
-0.51682347 -0.15369552 4.3678679 3.5
-0.45257229 -0.16585734 4.3382044 4.3996248
-0.3563301 -0.13247867 4.3151946 3.7473137
-0.12774672 -0.16111575 4.3248014 3.447799
-0.072680742 -0.15873143 4.3498626 5.5462961
0.072761267 -0.168529 4.3655138 6.1140351
0.17147684 -0.10032492 4.3355341 4.6967211
0.26985699 -0.16382493 4.3640146 4.6865144
0.33524188 -0.17537148 4.3193974 4.5917144
0.66759223 -0.15471539 4.3502221 5.625
0.76347911 -0.15550473 4.3288755 5.2379718
0.86726224 -0.17794248 4.3217497 4.3347769
-15.866802 -0.092882939 4.377491 7
-9.962862 -0.076164573 4.3614821 7
-5.8572783 -0.072424807 4.3967648 7
-0.52639884 -0.063902974 4.3654504 6.5
-0.46774042 -0.070005074 4.3554335 5.3838234
-0.3262037 -0.015791856 4.3018742 5.0132256
-0.2785123 -0.074885771 4.3095994 3.8703704
-0.12277084 -0.04811741 4.339395 5.2777777
-0.074610576 -0.055456653 4.3444529 5.7555556
0.015819371 -0.012760475 4.3695068 5.2666669
0.13515317 -0.038280912 4.3953471 6.5
0.2660023 -0.033459373 4.3455467 4.738389
0.64723378 -0.04246974 4.3602638 5.8333335
0.72307956 -0.05339931 4.3473167 6.25
0.82259476 -0.074028164 4.3220434 4.6887755
-15.839937 0.021976655 4.379818 7
-0.5149827 0.044775922 4.3527598 6.3333335
-0.47129557 0.052808862 4.3717175 5.9528985
-0.35720772 0.037413359 4.330987 5.7692308
-0.13834915 0.019368146 4.3391228 5.8571429
-0.056861758 0.079423733 4.3758841 6
0.24779788 0.06061776 4.3606935 5.310811
0.30550089 0.0049580783 4.3630991 5.0999999
0.63385904 0.075844631 4.3228335 6
-15.904631 0.178792 4.3551145 7
-15.884124 0.15064131 4.3205676 7
-14.511248 0.12208259 4.3644886 7
-0.51784742 0.12565933 4.3603115 6.333333
-0.48783481 0.11839546 4.3685446 6
-0.1313732 0.16001317 4.3551998 6.25
-0.08274623 0.12469346 4.3676715 6.3333335
0.17997971 0.10264631 4.3875351 5.7058825
0.6515426 0.13606447 4.3638444 6.1666665
-15.89327 0.21063621 4.3465028 7
-0.48020077 0.27678987 4.3775806 5.5
-0.1284491 0.26336667 4.3846054 7
0.64817959 0.2707566 4.3910446 7
-0.089393146 0.30428702 4.353106 5.5
0.2407019 0.39218292 4.364222 6
-0.49659407 0.48530799 4.3724799 7
0.13762808 -0.43931139 4.4045129 6
0.7382406 -0.42173386 4.4534082 6.4642859
0.80557775 -0.4085837 4.4772077 5.5833335
-4.9425898 -0.31527752 4.4301052 6
-4.8737273 -0.30990809 4.4502091 6.0999999
-4.7680931 -0.31918922 4.497262 6
-4.6623535 -0.33117464 4.4880486 6.1389055
-4.5420074 -0.32255846 4.4793544 6.2399998
-4.4102612 -0.33930147 4.4808965 6.0909095
-4.3587675 -0.31257677 4.4649649 6.166667
-1.0281696 -0.30107424 4.4936867 7
-0.52892381 -0.32388258 4.4488163 7
-0.46962228 -0.33119231 4.4332805 6.0770011
0.082306385 -0.30081731 4.4877605 7
0.17960548 -0.338994 4.4529457 7
0.23084748 -0.3442001 4.4227018 6.331522
0.74271059 -0.34245214 4.4543967 7
0.82871175 -0.38642985 4.4230638 6.4285712
0.91884768 -0.38628709 4.4257922 5.5
-5.9174995 -0.21240886 4.4312124 6
-5.8672328 -0.23494487 4.4539151 5.916667
-5.7555466 -0.28340739 4.4087925 6
-5.5371499 -0.20855737 4.4541998 3.7485383
-5.4306674 -0.20560102 4.4358745 4
-5.2801743 -0.22143681 4.4286785 1.7115384
-5.1372705 -0.23707822 4.4312458 6.6666665
-4.9161863 -0.22330633 4.4273171 6
-4.8482518 -0.24514274 4.4538174 5.8860931
-4.772109 -0.20587656 4.4556952 6
-4.66255 -0.26661247 4.4695268 6.181818
-4.5738964 -0.29141384 4.4909682 6.3157897
-4.4111567 -0.26478639 4.4884911 6.333333
-1.0548792 -0.29404613 4.4919786 7
-0.63037014 -0.22460613 4.401855 7
-0.56556737 -0.27333686 4.45926 7
-0.47479367 -0.2918801 4.474402 5.8252487
0.0603045 -0.25713137 4.4740424 6.5
0.13778274 -0.23937008 4.4464445 4.8000002
0.21475625 -0.25561041 4.4226422 6.5
0.77448153 -0.21503605 4.4238596 5.3870969
0.83253658 -0.29683131 4.4870768 5.3333335
-10.146976 -0.11833639 4.462697 6.333333
-10.035657 -0.12391945 4.4560781 7
-9.950182 -0.11517408 4.439096 6.5
-5.9095297 -0.10817246 4.4873314 4
-5.8497391 -0.16302651 4.4453278 4.7980161
-5.764873 -0.1553421 4.4215894 3.75
-5.6473203 -0.16096194 4.4650416 3.8703704
-5.549222 -0.15499468 4.4369049 3.73
-5.4318228 -0.13282706 4.4764171 3
-5.350131 -0.17888626 4.4337101 4.2624998
-5.267622 -0.17679091 4.4310613 3.6666667
-5.026926 -0.19466588 4.4343801 2
-4.9288354 -0.16627984 4.439672 4.6153436
-4.8706441 -0.1483694 4.4485326 5.3612943
-4.7902207 -0.1333538 4.455863 6
-4.6820621 -0.19722611 4.4978924 6.25
-4.3072371 -0.13832739 4.4582434 6
-1.0553794 -0.16070448 4.4793749 6
-0.5099839 -0.18668002 4.4253168 2.5
-0.44145858 -0.1756216 4.4532757 4.7692695
-0.098339304 -0.14153135 4.4233961 3
0.088457495 -0.1503133 4.4205012 5
0.14533117 -0.1460567 4.4331307 5.1970935
0.21208119 -0.18125899 4.4432878 5.25
0.30352718 -0.13115874 4.4255266 4.1623931
0.85294801 -0.14977492 4.427722 4.9083529
1.2869736 -0.12624195 4.4336591 6
-15.891112 -0.073952004 4.4184179 7
-10.10349 -0.050874397 4.4469247 7
-10.043077 -0.087629534 4.4349914 6.6666665
-9.936059 -0.084566571 4.4906249 7
-5.8577719 -0.079903796 4.4672565 6.5
-5.1523242 -0.061862923 4.4893141 5.875
-4.9117866 -0.066560172 4.4422917 6.3333335
-4.8956428 -0.080313362 4.4488611 7
-4.313807 -0.099165961 4.4580603 6
-4.2852082 -0.039861478 4.4817181 6.5
-1.1673626 -0.098518923 4.4981012 4.7959185
-1.08218 -0.098267987 4.4922295 4.3333335
-0.51493818 -0.043753419 4.48107 5.5
-0.4705573 -0.062748507 4.4284916 4.6875
