# .PCD v0.7 - Point Cloud Data file format
VERSION 0.7
FIELDS x y z intensity
SIZE 4 4 4 4
TYPE F F F F
COUNT 1 1 1 1
WIDTH 1278
HEIGHT 1
VIEWPOINT 0 0 0 1 0 0 0
POINTS 1278
DATA ascii
-17.861502 -0.56577516 -27.099899 7
-16.964422 -0.6085037 -27.194691 7
-15.828312 -0.7900517 -27.126467 7
-15.224326 -0.78807294 -27.118771 7
-15.013589 -0.78875744 -27.166903 7
-3.1749914 -0.40071487 -27.133528 7
-18.199276 -0.33382121 -26.890457 7
-3.336323 -0.39693528 -27.104704 7
-23.215296 0.12165207 -26.902611 7
-22.938398 0.31467855 -26.987041 7
-22.584761 0.28055987 -27.016739 7
-22.378813 0.32288811 -27.128294 7
-23.364698 0.40415365 -26.818529 7
-22.957628 0.53169215 -27.008419 7
-22.509027 0.53738362 -27.015572 7
-22.325104 0.67552632 -27.132761 7
-15.276938 0.73537934 -26.88134 7
-15.03334 0.51728427 -26.931511 7
-22.90056 1.0175838 -27.060255 7
-22.437113 0.80928183 -27.102858 7
-20.963959 1.9017904 -27.131327 8.1739998
-20.730171 1.8665622 -27.016842 8.1730003
-15.353409 1.6517408 -26.999498 8
-15.035233 1.6902249 -26.940975 8.0644999
-14.624233 1.6915011 -26.816174 8.1539993
-13.50631 1.6716424 -26.823092 8.1274996
-12.978678 1.6481467 -26.802895 8.1269999
-20.502823 2.1091263 -27.070532 8.1289997
-7.3115878 2.3474374 -26.905384 9.1260004
-7.1967402 2.3814228 -27.027431 9.1055002
-4.8369832 2.3558178 -27.188433 9.0979996
-4.5350409 2.3226318 -27.034233 9.1027508
-4.3408322 2.3372674 -27.081861 9.073
-2.2546532 2.2673874 -27.187778 9.04175
-15.624474 2.7618852 -27.04034 9.1027508
-15.403142 2.7484159 -27.123047 9.0647507
-14.571377 2.6990008 -26.896164 9.0967503
-13.37396 2.7705996 -26.911032 9.059
-9.0090742 2.4068003 -27.088104 9.1125002
-7.5965147 2.4008574 -27.007395 9.1160002
-2.445519 2.4614656 -27.168242 9.0544996
-5.0889745 3.1151848 -27.194939 10.079
-4.1761212 3.1739242 -26.893583 10.1275
-14.421616 3.5990655 -26.816244 10.1285
-6.2713246 3.3815305 -26.951651 10.075
-5.7892094 3.2583475 -26.908377 10.114
-5.2433891 3.2888765 -27.10326 10
-5.0388904 3.2796147 -27.14436 10.028786
-4.7043676 3.3411336 -26.941488 10
-4.2506547 3.4377971 -27.03339 10.0645
-18.244873 3.9046006 -26.955589 10.175249
-17.831909 3.9334013 -26.965834 10.15425
-14.480597 3.6246042 -26.810675 10.144
-8.8795977 4.2836075 -27.11054 11.1175
-8.7203655 4.2588263 -27.147839 11.06825
-5.6431313 4.2052312 -27.146183 11
-5.3269105 4.1709137 -27.111307 10.834167
-5.0133224 4.2066278 -27.110052 11
-4.6782651 4.3580995 -27.15513 11.024501
-5.0745544 4.5046959 -27.133869 11.009
-4.7606206 4.4918795 -27.131855 11
-5.0036411 5.0810061 -27.133722 11.903167
-5.3017249 5.2578373 -27.140976 12
-5.09831 5.2794838 -27.133411 12.0024
-4.6821404 5.4648552 -27.135241 12
-4.9381204 5.9235506 -27.073078 13.079
-4.7445784 5.9209971 -27.153183 13.148
-5.2859545 6.2815399 -27.125952 13
-5.0188322 6.2170105 -27.116568 12.666667
-4.7710443 6.2353678 -27.162159 13.002501
-5.0305042 6.6095409 -27.102598 13.006
-4.6364369 6.4262576 -27.160299 13
-5.2060323 7.1486807 -26.961098 13
-4.9664049 6.9849043 -27.036694 13.579
-4.7562008 6.9832406 -27.125471 14.0765
-5.2408614 7.2282753 -27.129442 14.006
-4.9569855 7.2788868 -27.141455 14
0.40407944 7.223999 -27.080173 14.081
-5.0615959 7.6318073 -27.089544 14.006
-0.42176983 7.7735353 -27.166742 14.0075
-5.2633786 8.1562157 -26.887913 14
-5.1470904 8.1835136 -26.978306 14
-18.528351 -1.3304508 -26.719339 6
-3.3218758 -1.5113243 -26.563759 6
-2.8912647 -1.503988 -26.408869 6
-18.922323 -0.96939445 -26.600782 7
-18.571177 -0.91800547 -26.726902 7
-18.286921 -0.81105125 -26.783899 7
-17.961916 -0.92469937 -26.776575 7
-19.001196 -0.53207058 -26.565912 7
-18.676918 -0.74975413 -26.649702 7
-19.055672 -0.31849593 -26.588638 7
-18.775576 -0.32522032 -26.79113 7
-22.799944 0.39686862 -26.659769 7
-23.057945 0.66556454 -26.765141 7
-15.51424 0.70417261 -26.780125 7
-22.98457 0.94854295 -26.739826 7
-22.081181 1.0240041 -26.418842 7
-14.529352 0.81903243 -26.763248 7
-14.180096 1.5565943 -26.477209 8.0609999
-6.9667716 1.4620943 -26.726292 8.0627499
-15.946575 1.8072309 -26.470558 8.1012497
-15.34936 1.7396129 -26.548229 8.1295004
-14.517736 1.7443925 -26.720024 8
-14.112864 1.6572337 -26.567589 8.1547499
-13.990506 1.6908447 -26.655703 8.1435003
-7.2985311 2.2844365 -26.657263 9.0546665
-7.1689506 2.2671728 -26.672859 9.0802498
-14.724552 2.6715348 -26.632908 9.0614996
-13.392866 2.5530453 -26.505671 9.1274996
-17.800295 2.8805518 -26.676243 9.1569996
-7.3044586 3.0035362 -26.570118 9
-7.1455412 3.0182757 -26.654379 9
-6.5707173 3.1766591 -26.485485 10.1355
-6.1224542 3.1070304 -26.52882 10.142
-5.4302115 3.1647899 -26.59164 10.129
-4.432188 3.1985216 -26.711603 10.1125
-4.3940887 3.1592369 -26.643312 10.1075
-6.1848555 3.200129 -26.629768 10.1095
-5.7841029 3.30761 -26.73175 10.099
-5.3202543 3.2126074 -26.649897 10.1135
-4.7243094 3.4151695 -26.754768 10
-14.828902 3.6138592 -26.707716 10.129
-6.375175 4.0474463 -26.438999 11.125
-5.7435856 4.0353832 -26.405544 11
-5.2322016 4.1131053 -26.669678 11.006
-18.560019 4.9255991 -26.78533 11.1715
-1.2742872 7.0077891 -26.475431 14.0825
-1.1075001 6.9142723 -26.607651 14.106501
-1.6401732 7.3992887 -26.532192 14.00725
-1.0466536 7.340837 -26.431147 14.026333
-5.2668328 -1.5101452 -26.073925 6
-5.034287 -1.3529921 -26.075094 6
-4.6150002 -1.4374366 -26.097908 6
-4.1071081 -1.4376413 -26.143686 6
-3.8294773 -1.3834608 -26.182314 6
-3.4106264 -1.5270019 -26.151737 6
-0.75467491 -1.5597348 -26.282555 6
-18.919542 -0.94335568 -26.228643 7
-6.6045122 -1.1179851 -26.028126 6
-6.1090393 -1.1551651 -26.014189 6
-5.8047409 -1.1644785 -26.040447 6
-5.3442612 -1.1792277 -26.08671 6
-5.112669 -1.1868745 -26.111158 6
-4.721756 -1.1875807 -26.114164 6
-4.3369155 -1.1986054 -26.143627 6
-19.481974 -0.78289336 -26.312872 7
-19.018478 -0.46024448 -26.035942 7
-21.791319 -0.020439334 -26.39076 7
-18.966406 -0.31111538 -26.0875 7
-22.000196 0.27011788 -26.299702 7
-13.689743 1.6651576 -26.22048 8
-6.9420223 2.3112116 -26.255945 9
-5.7977133 2.2917585 -26.065996 9.100625
-5.3738441 2.2395236 -26.011595 9.1134996
-5.0785799 2.3112366 -26.369375 9.0780001
-14.712416 2.6023233 -26.155224 9.1367493
-13.756175 2.5596132 -26.152134 9
-13.572725 2.5583324 -26.207972 9.0664997
-16.326275 2.9578552 -26.076361 9.0574999
-7.0092993 3.1139603 -26.322121 10
-6.2012205 3.0780988 -26.086727 9.5757504
-5.7435131 3.1325262 -26.25437 10
-13.734268 3.4910047 -26.147039 10
-13.308652 3.4632649 -26.289637 10.1275
-6.9272637 3.2144337 -26.297394 10
-6.2430444 3.2315173 -26.006432 10.0995
-5.8432717 3.3546865 -26.032896 10.066
-4.9199791 3.2051947 -26.079683 10.098
-4.4957461 3.2437696 -26.13298 10.075251
-18.806553 3.8128603 -26.207325 10.0195
-18.562105 3.8849792 -26.157053 10.149667
-7.0047913 3.9777038 -26.225098 10.333333
-6.6283636 3.9975317 -26.184618 11.1635
-5.9792118 3.9733696 -26.231131 11.137
-5.027133 3.9741971 -26.225037 11.1285
-20.313433 4.1055264 -26.162163 10.1545
-19.977444 4.0448918 -26.190521 10.129
-6.8711367 4.0660768 -26.179068 11
-6.68894 4.1976452 -26.29142 11.008
-6.1764402 4.0804486 -26.287916 11.1145
-5.3193226 4.0338583 -26.148418 11.1135
-21.004154 5.1445694 -26.378769 11.145
-18.490807 4.8444924 -26.111229 11.1455
-18.380148 4.9220667 -26.016342 11.153
-6.9930096 4.9155846 -26.045765 11
-5.8526545 4.982286 -26.257227 11.0055
-21.000721 5.2570543 -26.360853 11.155
-1.0349257 6.9564247 -26.371201 14.002
-1.2716646 8.1308594 -26.288679 14.0005
0.55311012 -1.6075234 -25.955809 6
6.7456808 -1.5340865 -25.853998 6
-19.007671 -0.94494849 -25.909718 7
-8.4143553 -1.0955846 -25.905441 6
-8.1409397 -1.0990665 -25.930191 6
-7.76334 -1.0953285 -25.955498 6
-7.5905666 -1.1189979 -25.966648 6
-7.0991292 -1.1314839 -25.986837 6
-19.035324 -0.47237596 -25.91535 7
6.8658957 -0.70789707 -25.679314 7
-19.101074 -0.28632194 -25.871063 7
-22.600943 0.30567557 -25.86582 7
-19.019367 0.23039828 -25.860149 7
6.6554303 0.19095427 -25.696701 7
7.0382504 0.14788076 -25.756218 7
-19.669878 0.71883649 -25.634714 7
-19.559977 0.63846576 -25.68738 7
-22.871857 0.97373652 -25.755173 7
-22.794245 0.80541462 -25.758944 7
-19.310492 0.87649876 -25.672693 7
6.9000697 1.1722323 -25.795454 8.0334997
-18.920582 1.4431243 -25.67046 8
6.9138699 1.2120903 -25.674099 8
-20.077843 1.9423733 -25.692177 8.1444998
-19.007666 1.8297595 -25.655073 8.0491428
-20.248491 2.0278878 -25.685581 8
-5.7291832 2.2122533 -25.950638 9
-5.5841675 2.1231422 -25.996267 9.1490002
6.9262428 2.1249371 -25.79007 9
-18.846958 2.6051333 -25.632967 9
-18.774302 2.5644963 -25.711662 9.0395002
-14.170014 2.5513704 -25.994255 9.1285
-20.837862 3.045059 -25.685955 9
-20.417751 3.0223389 -25.800087 9
-20.095541 2.9960423 -25.772127 9
-18.804926 2.8920417 -25.639462 9
-5.6480145 3.0097926 -25.927744 9.0054998
6.9585876 3.0794694 -25.73575 10
7.1798544 3.2606542 -25.608261 10.066
7.2249551 3.3587775 -25.637215 10
-20.836817 3.7818 -25.893946 10.0065
-20.548683 3.9592793 -25.960926 10.1735
-18.743217 3.7793887 -25.761282 10.041667
-6.6835284 3.948704 -25.976597 10.0065
-21.314371 4.2140083 -25.725395 10.1755
-20.868793 4.0972233 -25.90251 10
6.9585791 4.0071759 -25.736528 11
6.9853797 4.5529957 -25.614519 11.0415
-18.474928 4.9163642 -25.924778 11.158
7.0033212 5.028182 -25.759026 12.05025
7.1280484 5.4381728 -25.80809 12.062
6.8239489 -1.6445488 -25.553991 6
6.8083801 -1.5311829 -25.447639 6
7.2670426 -0.94666159 -25.418249 7
-19.531965 -0.76500034 -25.594584 7
-22.919304 0.29581606 -25.531963 7
-22.697577 0.33221221 -25.439732 7
-20.098286 0.3260197 -25.307701 7
-19.876625 0.28629774 -25.497202 7
6.7138352 0.1857762 -25.338963 7
6.9894686 0.16819032 -25.392262 7
-22.942276 0.51804566 -25.546833 7
-20.195621 0.41862136 -25.281277 7
-19.705158 0.65785027 -25.579731 7
-22.886871 0.89198589 -25.427559 7
7.1429787 1.1196254 -25.408957 8.0671663
7.2531972 1.1890876 -25.587173 8
-20.469358 1.481648 -25.565199 8.0485001
-19.524487 1.5902221 -25.280174 8
-19.114716 1.4377401 -25.580906 8.0114994
6.9419603 1.2017931 -25.427509 8
7.2269387 1.2882493 -25.478128 8.0495005
-20.490261 1.9949936 -25.392281 8.0609999
-19.212536 1.7737582 -25.509756 8.08675
-19.095041 1.856451 -25.577707 8
7.0497932 2.1226308 -25.483469 9.034667
7.2384095 2.2407658 -25.464554 9.0398331
-20.577301 2.6980653 -25.528238 9.0445004
-18.930223 2.7415144 -25.377768 9.0333338
-18.63022 2.5668135 -25.374611 9.0102501
-20.698238 2.8197193 -25.58889 9.0380001
-18.819658 2.8378787 -25.441395 9
-18.759527 2.8034589 -25.498138 9
7.0281487 3.080014 -25.43848 10.035143
7.232491 3.1711059 -25.361986 10.07
-15.573686 3.5442271 -25.460146 10.1405
7.2425885 3.3754807 -25.391504 10.035666
-18.655031 3.780658 -25.309448 10.024786
6.9767208 3.9769375 -25.418749 11
6.9844856 4.0735779 -25.37406 11.0955
7.2149577 4.1986179 -25.283787 11.07
7.2277846 4.4907169 -25.418348 11.02475
7.0133753 4.9577212 -25.411976 12.0191
7.2717175 5.5193386 -25.519373 12
6.8231282 -1.7018675 -25.076794 6
6.8336239 -1.5119565 -24.965597 6
-18.396917 -0.91918027 -25.060848 7
6.7785354 -0.88052076 -24.923519 7
6.9913077 -0.90172237 -25.09197 7
7.2432961 -0.9579547 -24.933273 7
-18.66824 -0.55040282 -24.955444 7
6.9322052 -0.60261858 -24.819578 7
-18.674171 -0.29540142 -24.946087 7
-23.13172 0.27670157 -25.089275 7
6.9046993 0.20296744 -24.971729 7
7.3660617 0.20612997 -25.164875 7
-22.853453 0.46293551 -25.02873 7
6.9915709 1.1323242 -25.061163 8.0230713
7.2304177 1.0825489 -24.866928 8
-30.163363 1.2623342 -24.808191 7
-20.473141 1.5623554 -24.879919 8.0004997
-20.4254 1.9991465 -24.919197 8.1300001
6.9970336 1.9712108 -24.881304 9
7.0119081 2.0752909 -25.068792 9.0269165
7.2452426 2.1093202 -24.849686 9
-30.123707 2.5146027 -25.034302 8.0830002
-19.276638 2.7269964 -25.019485 9
-18.847174 2.7786679 -25.173422 9
-18.662888 2.6640265 -25.092781 9.0371246
-22.756441 2.8539648 -24.954643 9.0620003
-18.822655 2.8031082 -25.131304 9
-18.78064 2.8413746 -25.183788 9
7.0364885 3.0210814 -24.987707 10.023071
-18.987392 3.8638811 -25.123465 10
-18.690928 3.7882576 -25.118034 10
6.9988103 3.9038746 -25.006256 11
7.171783 4.335824 -24.918379 11.0575
-18.546633 4.7882957 -25.051006 11
-18.308725 4.7554073 -24.888145 11.1535
7.0087347 4.793582 -24.847248 12
7.0171494 4.9423914 -25.036095 12.022625
7.0531435 5.7524166 -24.883034 13
-17.812683 7.5238643 -24.916761 14.142999
-18.415623 7.8579969 -25.046728 14.1585
-17.705557 7.6923227 -24.925457 14.1555
6.8669219 -1.6726309 -24.475834 6
6.8573852 -1.4956579 -24.552008 6
6.8041434 -0.8730827 -24.511806 7
7.2327976 -0.96088076 -24.527569 7
-19.034016 -0.64675593 -24.694725 7
6.9555826 -0.69120842 -24.641682 7
-22.764069 0.29021695 -24.539846 7
7.0201845 0.1326568 -24.576122 7
7.3567944 0.16636841 -24.562067 7
7.0296788 1.09413 -24.634052 8.0488129
-20.707436 1.4344013 -24.693457 8.0514011
7.1136603 1.2138087 -24.692715 8.0430002
7.2677579 1.243595 -24.494219 8.0489998
-20.604773 1.8937976 -24.729412 8.1289997
7.0457044 2.0857112 -24.580364 9.029438
7.2498784 2.2807317 -24.420628 9.0489998
-30.696899 2.4557562 -24.579075 8.0767498
-22.6117 2.6561687 -24.419384 9.0229998
-22.481421 3.012012 -24.554346 9.1725006
-22.3799 3.0779364 -24.57209 9.1569996
7.0430508 2.9794629 -24.519917 10.042125
7.2506824 3.1556256 -24.626583 10
7.102098 3.3596129 -24.736738 10.041
7.2672067 3.3634365 -24.412981 10.049
-19.161596 3.8936036 -24.727701 10
6.9930077 3.8452644 -24.583223 11.026084
6.9129095 4.0927162 -24.730696 11.0905
7.2069764 4.181561 -24.507381 11
7.0282583 4.6713896 -24.546783 11.8395
7.0444517 4.8267193 -24.664803 12
-3.7039051 5.4873805 -24.704153 13.1115
-3.3517489 5.5670986 -24.489555 13.05275
7.2487888 5.2231722 -24.537228 12.03275
-3.9206011 5.755455 -24.577679 13.0055
-3.2915978 5.9944811 -24.545113 13.0675
7.0956306 5.7060571 -24.654512 13.052167
-6.9846005 6.0266366 -24.451735 13.0715
-3.6952083 6.0207853 -24.558764 13.005
-3.3284345 6.1509471 -24.473833 14.134125
-7.4262471 6.4560356 -24.564695 14.111
-3.7522156 6.6028814 -24.553944 13.0035
-3.4412861 6.4553256 -24.400082 14.0045
-2.8749712 6.634779 -24.499603 14.04
-17.944939 7.9209485 -24.70125 14
6.9162641 -1.6569108 -24.131947 6
6.8766332 -1.483222 -24.234039 6
6.9291925 -0.82650733 -24.387455 7
7.4781718 -0.8521955 -24.070648 7
6.9821329 -0.67466682 -24.241901 7
-20.311485 -0.0052131228 -24.255724 7
-22.914133 0.32726252 -24.247385 7
-22.610964 0.26540634 -24.032373 7
6.943933 0.1838783 -24.20145 7
7.2566366 0.08972168 -24.152805 7
-23.208942 0.4702217 -24.025702 7
-22.802402 0.9165802 -24.217247 7
-22.780092 0.91385698 -24.092741 7
7.0368981 1.0887235 -24.198729 8.0299168
7.3009763 1.0947353 -24.169657 8.0283327
-30.696358 1.3456748 -24.246983 7
-22.527964 1.3467069 -24.007809 8.0120001
-22.463802 1.8439767 -24.040016 8.1759996
-22.163616 1.9149112 -24.069376 8.1789999
6.9736428 1.9929498 -24.206709 9.0324163
-31.0667 2.352757 -24.288866 8.0740004
-22.014288 2.0189445 -24.104191 8.1569996
7.2826929 2.141995 -24.134212 9
-31.289474 2.5381346 -24.07229 8.0934992
-30.947842 2.6333892 -24.30377 8.0930004
-20.539139 2.5794029 -24.173771 9.0415001
-22.421501 2.8775961 -24.011393 9.1759996
-22.329691 2.9841237 -24.275696 9.1147499
7.0227547 2.9318631 -24.287771 10
7.3100152 3.1918781 -24.04133 10
7.2981944 3.2090874 -24.208044 10
6.98664 3.8197923 -24.173641 11
7.0751581 4.1989355 -24.388618 11.05925
7.2604012 4.235167 -24.095369 11
7.0259681 4.7037196 -24.250238 12
7.2108893 4.4048238 -24.264549 11.049
7.0291481 4.8118958 -24.043993 12
-2.938385 5.3860626 -24.276632 13.1105
7.1013098 5.5921793 -24.167953 13
7.323689 5.2783971 -24.066631 12
-3.2691755 5.7684579 -24.280258 13.0065
-2.8680508 5.9885917 -24.087111 14.146
-7.0145473 6.2434397 -24.245222 14.128626
-3.7307415 6.2451873 -24.278597 14.1115
-2.9339705 6.288815 -24.13319 14.05725
-6.3011355 6.7134137 -24.215937 14.075
-3.6952701 6.632946 -24.357803 14.007999
-3.4151354 6.5595274 -24.257404 14.0865
-3.0023947 6.5912752 -24.263855 14.0905
-4.1425848 6.8484325 -24.171856 14.0055
-3.6961601 6.8918452 -24.353611 14.005
-3.2593429 6.8006067 -24.019171 14.0045
-17.733934 7.4694266 -24.145052 14.154834
-4.2140269 7.3835287 -24.051121 14.004
-3.7705905 7.4487882 -24.244186 14.0035
6.9561429 -1.640179 -23.774498 6
6.9002843 -1.464507 -23.759048 6
7.3297253 -0.91276586 -23.724926 7
-30.937641 -0.2855354 -23.817739 7
-31.070646 0.28954259 -23.780449 7
-22.867771 0.32618779 -23.867657 7
-22.708151 0.33235726 -23.865088 7
-20.922768 0.28436735 -23.737452 7
-20.600971 0.32015115 -23.893221 7
6.9653034 0.15600958 -23.795425 7
-23.161318 0.46851629 -23.631411 7
-22.577019 0.69441289 -23.676973 7
-31.310497 1.0363855 -23.822283 7
-22.804079 0.87762713 -23.77128 7
-22.719385 1.0353482 -23.78409 7
7.0020137 1.0620723 -23.828999 8.0461254
7.215066 1.1182457 -23.734877 8.0547504
-31.482922 1.423645 -23.670902 7
-22.616659 1.4678181 -23.915417 8.0238743
-20.554827 1.3826479 -23.643238 8.0582504
-20.341072 1.4751556 -23.784098 8.0117502
-20.500483 1.8218964 -23.670233 8.0465002
-20.355251 1.941898 -23.82033 8.1304998
7.0085678 1.9540421 -23.756252 9.0334997
7.0424128 2.0297818 -23.731735 9.0774994
-31.755268 2.5861254 -23.661682 8.09375
-31.516161 2.5349598 -23.904402 8.0734997
-20.409899 2.8516335 -23.888515 9
7.0252419 2.8935561 -23.817507 10.0189
-20.1758 3.852139 -23.617319 10.08075
-19.90954 3.8095353 -23.81612 10.1299
7.0043883 3.7713583 -23.765902 11.016583
7.2597394 4.2096534 -23.90798 11
7.0382805 4.6587148 -23.807869 12.019899
7.0372338 4.8640404 -23.862076 12.03
7.312645 5.0210724 -23.969603 12.0825
7.1121721 5.5438156 -23.869198 13
7.1326742 5.601716 -23.699263 13
-19.803116 6.0068407 -23.635698 12.1775
-7.0270805 6.3661251 -23.981272 14.1055
-19.341105 6.6201611 -23.767593 13.158
-19.348331 6.9601727 -23.620466 13.005
-17.750381 7.3382683 -23.845699 14.158
-7.2128086 7.2884097 -23.77931 14.0075
-3.3347821 7.372714 -23.928013 14.003
-18.219143 7.8744597 -23.77747 14.004
-17.882114 7.7067466 -23.783386 14.0005
6.9288235 -1.4470131 -23.305294 6
7.0122743 -0.82961798 -23.390938 7
7.3093748 -0.92680913 -23.434658 7
7.0086641 -0.59102893 -23.450468 7
-22.980307 0.2155764 -23.380356 7
-22.712971 0.39401001 -23.594492 7
6.9995451 0.1812833 -23.392218 7
7.0262084 1.065872 -23.404959 8.0198002
7.31249 1.1935294 -23.380028 8.0485001
-31.683796 1.5120608 -23.510338 7
-20.627466 1.4836407 -23.491455 8.0216665
-20.667002 1.7698311 -23.502096 8
7.0047994 1.9386997 -23.386133 9.014143
-20.248234 2.3537912 -23.328957 9.0264997
7.1592755 2.1816707 -23.546898 9.0445004
7.2721972 2.1942904 -23.269743 9.0485001
-32.01289 2.7163758 -23.315866 8.1239996
-31.827108 2.6308043 -23.509104 8.1083336
-20.277241 2.661433 -23.372492 9.0086994
-19.976942 2.7784698 -23.349648 9.0050001
7.0465498 2.7944977 -23.211863 10
-20.196156 2.85554 -23.413643 9
7.0258293 2.8538487 -23.407972 10.0165
-20.274828 3.5236797 -23.257477 10.0075
7.1946559 3.2212434 -23.378241 10.0445
7.2998538 3.243365 -23.282938 10.0485
-20.13389 3.8508062 -23.393005 10.087
7.0054111 3.7499771 -23.383081 11.01575
-20.078903 4.0008912 -23.42494 10
-17.467813 4.3868346 -23.590963 11.1485
7.1501813 4.2361093 -23.257475 11.0445
-17.486343 4.4796367 -23.536549 11.1585
-17.166702 4.7330089 -23.550753 11.028
7.044692 4.5817413 -23.391586 12
-17.188311 4.8462157 -23.410429 11.003
7.0320368 4.8498821 -23.242105 12
7.1320934 5.485055 -23.385908 13
-17.094894 5.7106242 -23.506813 12.173
7.0816298 5.6015978 -23.452087 13
-19.791885 6.233026 -23.544399 12.1715
-17.793238 7.4629588 -23.495178 14.1695
6.9353342 -1.4243013 -23.031788 6
7.06074 -0.93275338 -22.91357 7
-17.660009 -0.55023313 -22.951416 7
7.0474391 -0.67777431 -23.088078 7
-17.646027 -0.39635411 -22.955376 7
-31.39312 0.31586522 -22.898787 7
7.0093536 0.19924374 -22.959572 7
7.3558731 0.10311827 -22.984861 7
-31.434044 0.42102 -22.875818 7
7.0540848 1.0362628 -22.945679 8.0183506
7.2723088 0.991045 -23.030878 8.0761671
-32.094719 1.5246624 -23.043034 7
-31.961889 1.5723853 -22.821871 8.0244999
-31.232424 1.2812001 -22.979885 7
7.0223904 1.9106002 -22.948879 9.0111876
7.2489834 1.9223716 -23.023607 9.0820007
7.2230344 2.0541165 -23.066484 9.0565004
-31.494938 2.5180573 -22.870533 8.085
-20.497084 2.6268775 -23.157101 9
-17.693895 2.5516987 -22.859182 9.0009995
-17.547583 2.5903511 -22.931961 9.1607494
7.0575533 2.7673531 -22.903057 10
7.0432882 2.8693602 -22.975101 10.022375
7.3003073 2.9987931 -23.076626 10.0705
-17.71932 3.4627342 -22.925722 10.04325
-17.498707 3.4829044 -22.861782 10.08175
7.0689745 3.5923936 -22.897238 11
-20.498308 3.6131864 -23.110516 10
-20.219725 3.7361946 -23.163116 10
7.0281515 3.7485111 -23.031431 11.026929
7.2262464 4.1606827 -23.048737 11.0525
-17.675568 4.5508184 -23.067553 11.00225
-17.422379 4.4885116 -22.984247 11.008834
7.0844331 4.5478997 -22.947313 12
-16.836748 5.1126685 -23.091862 12.143
7.3607826 4.8752508 -23.059362 12.082001
-17.084084 5.4490662 -23.024456 12.0005
7.1512742 5.4100189 -22.973497 13
-16.601139 6.1477985 -23.072342 13.1555
-17.728539 7.1299481 -23.170332 14.149
-17.652555 7.2438707 -23.133808 14.154
7.0027962 -2.2278547 -22.481968 5
6.977356 -1.4350959 -22.605042 6
7.0678334 -0.67712778 -22.607798 7
7.2473774 -0.0073619634 -22.617891 7
-18.210093 0.24619453 -22.490625 7
7.0336266 0.16288285 -22.607456 7
7.3383965 0.078039818 -22.587112 7
-18.173561 0.61094147 -22.51763 7
7.0786366 1.0265365 -22.598858 8
7.2808528 1.0658786 -22.490484 8.0360003
-32.266708 1.3164316 -22.59638 7
-31.580467 1.925004 -22.565756 8.0080004
-17.774372 1.6202788 -22.435528 8.0004997
7.0424347 1.8786815 -22.638481 9.0117502
7.2208738 1.9731567 -22.765514 9.0644999
-17.669733 2.2814519 -22.5396 9.0211
-17.592537 2.3462665 -22.696318 9.052
7.215034 2.1037185 -22.472837 9.0439997
-31.664917 2.4768844 -22.580189 8.1175003
-17.750509 2.5347242 -22.752262 9.1265001
-17.553661 2.5048742 -22.683989 9.1464996
7.0665178 2.7500863 -22.639835 10
7.0384264 2.8453941 -22.70681 10.047
7.2294569 3.0443876 -22.599495 10.05425
-17.652143 3.4678929 -22.601614 10.0741
-17.507915 3.4464183 -22.679714 10.121201
7.0830307 3.5638773 -22.557266 11
7.0506535 3.698987 -22.669334 11.009063
-17.426474 4.3557968 -22.731012 11.112999
-17.06776 4.3089027 -22.566322 11.021749
7.0950041 4.3875937 -22.591829 12
-17.177343 4.4590616 -22.413889 11
7.1125498 4.5537133 -22.599955 12.014501
-17.060123 5.4930501 -22.749674 12.177
7.1719041 5.3308315 -22.507093 13
7.0123901 -1.4260921 -22.128389 6
7.0685349 -0.82271528 -22.263933 7
7.350203 -0.9209708 -22.172935 7
-17.786652 -0.76630461 -22.133984 7
-17.571341 -0.41685629 -22.310295 7
7.0986681 -0.58024442 -22.086283 7
-32.456055 0.11823109 -22.176645 7
-31.886673 0.12332256 -22.06531 7
-18.514462 0.25944996 -22.228146 7
-18.35169 0.24069095 -22.33783 7
7.0583205 0.1703503 -22.16605 7
7.3118453 0.037574712 -22.233648 7
-18.393658 0.52689719 -22.27977 7
7.0994611 0.9970755 -22.200541 8.0178881
7.3157554 0.9743256 -22.250017 8.0478334
-32.512451 1.2648046 -22.208008 7
-31.847773 1.5512575 -22.288057 7.3381667
-18.012974 1.312861 -22.142508 8
-17.817387 1.4553139 -22.198664 8.0759993
-32.762993 1.8326303 -22.099297 8.0284996
-17.748087 1.6538767 -22.260637 8.107583
7.07059 1.842081 -22.189795 9.014636
7.2670813 1.920126 -22.212448 9.0484285
-32.654858 2.2253821 -22.212208 8.0035
-17.795557 2.3102322 -22.188782 9.0150003
7.2990403 2.1285794 -22.384069 9.0480003
-32.636871 2.4766521 -22.343536 8.1154995
-17.687689 2.4891295 -22.299265 9.0438337
-17.552399 2.514174 -22.246178 9.1185007
7.0819883 2.7017977 -22.215673 10
-21.035721 2.8014081 -22.015926 9.1709995
7.0429792 2.8434422 -22.237997 10.089
7.2856827 2.9304008 -22.216896 10.048374
-17.71459 3.4302137 -22.13929 10.0005
-17.483006 3.2920525 -22.137028 10.0095
7.0938921 3.5443861 -22.219646 11
-20.894722 3.7168386 -22.027283 10.162001
-17.54718 3.6128068 -22.210886 10.064
7.1122651 3.7167945 -22.235794 11.013
7.2677674 3.8675802 -22.083368 11.02
-17.388363 4.3209 -22.199389 11.0235
7.1288366 4.3146615 -22.239967 11.8088
-17.230013 4.4546404 -22.336239 11
-16.968344 4.5512266 -22.204268 11.0285
7.1114097 4.4772511 -22.226965 12
7.2039785 4.6407838 -22.08219 12.072
-18.260963 5.1348977 -22.181871 12.145
-16.668953 5.0108604 -22.185658 12.1553
7.1789169 5.1897626 -22.148775 13
7.3810487 4.9523859 -22.067991 12
7.1858559 5.3329754 -22.261219 13
7.2058916 5.2795162 -22.080275 13
7.0207009 -1.3976358 -21.804361 6
-17.852564 -0.82282156 -21.972849 7
7.0820198 -0.81940764 -21.991884 7
7.3872747 -0.90317839 -21.827457 7
-17.838444 -0.5713113 -21.653458 7
7.1234956 -0.66750371 -21.843798 7
-17.926645 -0.37183416 -21.688229 7
-32.691322 0.16253515 -21.680008 7
7.0846682 0.18737474 -21.786102 7
7.3276496 0.013354158 -21.71896 7
7.1169915 0.9780612 -21.754107 8.0139999
7.2717729 0.98392189 -21.708023 8.0407505
-32.804417 1.4515908 -21.92642 7
-32.757168 1.3233505 -21.820162 7
-21.340019 1.4241985 -21.796907 8.0225
-18.115208 1.4969857 -21.95673 8.0872498
-32.736885 1.6269114 -21.941399 8.0185003
-21.343491 1.8423848 -21.821098 8.0764999
7.0862918 1.8107711 -21.851986 9.0139999
7.2914915 1.8536692 -21.797527 9.0340004
-17.951206 2.3535144 -21.993456 9
7.251205 2.0419073 -21.613974 9.0434999
-32.925346 2.7293813 -21.8417 8.1199999
-32.789261 2.4326637 -21.902281 8.0035
-21.127029 2.6312413 -21.711308 9.1765003
-18.199137 2.4731317 -21.781488 9
7.1033306 2.6640863 -21.845821 10.025125
7.2850566 2.7965469 -21.725292 10.068
7.3267722 2.8086829 -21.835258 10
-18.001499 3.5580938 -21.882261 10
-17.377638 3.364918 -21.80357 10.052428
7.1248922 3.5035815 -21.802475 11.025126
-21.109941 3.716079 -21.757517 10.0045
7.3084531 3.8279254 -21.795776 11.021333
7.1456733 4.3200445 -21.818628 12.017166
-20.644793 4.6135392 -21.803942 11.1575
-18.239248 4.5732255 -21.674154 11.116501
-17.068121 4.4362583 -21.667486 11.174
7.1270399 4.4936609 -21.833374 12
7.1971869 5.105217 -21.732826 13
7.3049841 5.028882 -21.703964 12.5
-18.275869 5.2192469 -21.68231 12.1645
-16.895166 5.2798066 -21.839851 12.008834
-16.531666 5.2607632 -21.888058 12.01175
7.2203231 5.2784891 -21.888435 13.05025
-16.57276 5.869173 -21.78545 13.16375
-16.316235 5.8255711 -21.812754 13.15575
-17.016712 6.2944264 -21.980495 13.004
-16.522829 6.0720105 -21.71925 13.0005
-16.20631 6.0773573 -21.738495 13.00175
7.0491457 -1.3859262 -21.455141 6
7.3368506 -0.94929093 -21.435333 7
-18.245222 -0.76703358 -21.301144 7
7.1408448 -0.62720215 -21.446026 7
7.2767372 -0.01253482 -21.39465 7
-32.66275 0.35474584 -21.462631 7
7.0791545 0.13208993 -21.478737 7
7.3420644 0.0054304423 -21.389507 7
-32.99754 0.75712937 -21.323971 7
-32.823353 1.1695224 -21.501934 7
7.1223297 0.96300411 -21.368626 8
7.3186412 0.91916507 -21.385252 8.0229168
-33.002491 1.4360123 -21.469137 7.2069001
-21.094635 1.316704 -21.299158 8
-21.275007 1.810431 -21.458065 8.0834999
-21.133535 1.6591029 -21.292183 8
7.1008477 1.7801595 -21.396116 9
7.2869291 1.8424791 -21.444544 9.0102997
7.1146226 2.6289403 -21.411325 10
7.3112221 2.7470388 -21.455523 10
7.280941 2.9151249 -21.399561 10.031667
-20.695326 3.5333071 -21.246334 10.1765
7.1348019 3.4524992 -21.441416 11
-20.753483 3.7207732 -21.269133 10.0075
7.2858458 3.7697971 -21.421165 11.019
-18.225998 4.2223392 -21.301325 11.025749
-17.291235 4.0388627 -21.33112 11.1445
-17.113663 4.0909758 -21.290861 11.164
-16.477236 4.0482492 -21.244373 11.154
7.1526513 4.2652364 -21.430862 12
-20.396042 4.6421623 -21.335396 11.171
-18.459843 4.6101036 -21.25564 11.176
-18.179461 4.4455681 -21.480742 11.0065
7.1406794 4.4334755 -21.453373 12
7.2655458 4.5680027 -21.57934 12
-18.30072 5.171391 -21.343575 12
-17.368517 5.1106935 -21.291981 12.0255
-16.660355 4.9542279 -21.547405 12.154
7.1995211 5.0031319 -21.321545 13
7.2138348 5.0935221 -21.332724 13
-20.262815 5.4244871 -21.358452 12.1575
-18.348963 5.2014713 -21.301098 12
-17.406084 5.3687711 -21.247787 12.177
-16.86655 5.2863026 -21.397545 12.09675
-16.74563 5.2104201 -21.558275 12.004
7.1788731 5.5121412 -21.479324 13
7.2532148 5.3234606 -21.406511 13
-17.016899 5.7648277 -21.258965 13.151668
-16.490673 5.7578597 -21.302107 13.154
-20.122053 6.3245969 -21.203352 13.1575
-16.60338 6.1325779 -21.538771 13.001
-17.489361 6.7248507 -21.290863 14.1525
-19.962139 6.9684896 -21.256945 14.137
7.0785537 -1.3657569 -21.03615 6
7.1476288 -0.80586761 -20.833794 7
7.3487449 -0.92957181 -20.896429 7
-16.565117 -0.66078258 -20.891672 7
7.1599116 -0.64073044 -21.04142 7
7.3450599 -0.010979846 -21.080339 7
-33.000736 0.33347049 -21.075607 7
-21.097324 0.28591552 -20.86161 7
7.1101055 0.13437335 -20.961493 7
7.3804784 0.049095269 -21.099237 7
-33.052826 0.44916636 -20.920197 7
-21.209951 0.51572883 -20.916632 7
-21.143188 0.51385307 -21.149527 7
-21.38076 0.93818796 -21.068245 7
7.1432629 0.94148117 -20.935247 8
7.3610649 0.90095335 -20.95112 8.0326433
-33.279823 1.5025896 -20.969421 7.5167499
-33.052052 1.2902786 -21.055433 7
-21.213642 1.4154028 -21.190773 8
-21.051859 1.297798 -20.973328 8.0023746
-21.113255 1.7375817 -21.023932 8.0172501
7.1175818 1.7549522 -20.935415 9
7.3025169 1.8089819 -20.995012 9.0292864
-33.110352 2.0917265 -21.115204 8.0135002
-20.920515 2.2958639 -21.032091 9
-33.254333 2.7780979 -21.125164 8.1169996
-32.98571 2.5107119 -21.131386 8.0115004
-20.947121 2.6600692 -21.00437 9.0351505
7.1341963 2.5950916 -20.932213 10
7.3225527 2.7432051 -20.997499 10.0283
7.2963266 2.8045695 -21.151934 10.0635
-20.911894 3.4555502 -20.900499 10.018666
-20.675787 3.4914567 -21.022511 10.061749
7.1480894 3.4078367 -20.933083 11
-20.765709 3.6514721 -20.91058 10
-16.655165 3.9583216 -21.113548 11.112625
7.074645 3.6161301 -21.113136 11
7.3299294 3.6669812 -20.923117 11.016875
-18.526003 4.3161435 -20.974575 11
-18.275452 4.2404485 -21.049646 11.038
-17.450781 4.2602372 -21.030655 11.120167
-16.834993 4.1407752 -20.917944 11.0015
-16.667353 4.0973015 -21.007587 11.084832
7.1698785 4.2430196 -20.983696 12
-20.890949 4.4159813 -20.811041 11.027
-20.613455 4.5341072 -20.957804 11.039927
-18.254868 4.5027146 -20.951584 11.1399
-17.926626 4.5964041 -20.850422 11.005
7.1088653 4.4907045 -20.993599 12
7.3392844 4.6512504 -21.003708 12.021167
-18.003298 5.1155643 -20.872108 12
-17.849663 4.9180741 -20.914171 12.050167
-17.289955 5.1666498 -21.148321 12.024
-16.790146 4.9069409 -21.177771 12
7.1938844 4.9553566 -20.973259 13
7.235219 5.0769401 -20.93495 13
-20.441612 5.4766722 -20.957722 12.025499
-20.341244 5.4251847 -20.893381 12.099501
-17.912687 5.3083038 -21.022587 12
-17.312525 5.5361409 -21.174812 12.171
-17.186792 5.3549924 -21.108109 12.1745
-16.677916 5.5937281 -21.151814 13.072001
7.3330269 5.4096565 -21.098818 13.047168
-16.582178 5.7263699 -21.051189 13.124626
7.2533932 5.7674685 -21.030083 14
-18.021923 6.1303935 -20.961239 13
-17.736067 6.3173318 -21.068905 13
-16.897806 6.156208 -20.855511 13.178
-20.109077 6.4454689 -21.093264 13.1795
-17.589077 6.6036124 -21.188278 14.145
7.1031213 -1.3780746 -20.472773 6
7.4871826 -0.86919284 -20.604893 7
-16.420055 -0.76474774 -20.565025 7
7.1951394 -0.61458635 -20.534073 7
-16.547272 -0.32745707 -20.561069 7
7.3776078 -0.0079855025 -20.622955 7
-32.140511 0.26289806 -20.694199 7
-31.887331 0.11961207 -20.731976 7
-21.034622 0.27249634 -20.498276 7
7.1406803 0.14701034 -20.608711 7
7.4017406 0.056023348 -20.626328 7
-21.304632 0.62109846 -20.67005 7
-21.331577 0.88749266 -20.62365 7
7.1663947 0.92788756 -20.593006 8
7.3627148 0.93123436 -20.631582 8.0268126
-33.23053 1.583848 -20.638824 8.0159998
-32.223248 1.2054356 -20.778206 7
-21.456463 1.263912 -20.745825 8
-21.021139 1.4757016 -20.559898 8.0300007
-21.237806 1.6626233 -20.596279 8.0897503
-21.124901 1.7850873 -20.598753 8
7.1381469 1.7211745 -20.595606 9
7.3289995 1.8210443 -20.614695 9.03755
-20.924618 2.2825751 -20.610607 9.0146999
-20.732901 2.3518562 -20.576242 9.0076666
-18.026417 2.3859282 -20.527349 9.165
-17.884451 2.3847101 -20.471691 9.1780005
-33.220406 2.6369019 -20.747484 8.1149998
-33.08556 2.5717599 -20.668352 8.1660004
-20.908945 2.6629512 -20.618179 9.0002499
-20.748545 2.5877557 -20.786404 9.1379995
-18.363873 2.4759667 -20.477631 9
-17.989754 2.4341037 -20.53474 9.0792503
7.1515841 2.5494909 -20.567888 10
7.347857 2.7014353 -20.622259 10.029751
7.3018718 2.9040155 -20.584862 10.047
-28.484341 3.3408947 -20.465939 9.1112499
-20.935154 3.3092866 -20.578789 10
-20.683113 3.4610922 -20.578749 10.005001
-18.404249 3.3967831 -20.60931 10
-18.276443 3.3802323 -20.613327 10.001249
7.1608329 3.3696184 -20.573685 11
7.2895193 3.5450249 -20.582882 11
-20.731733 3.6522398 -20.63159 10
-17.150459 3.9486282 -20.680897 11.15
7.3094482 3.7719955 -20.561483 11.0282
-20.627403 4.3283205 -20.570686 11
-18.735386 4.2382078 -20.73538 11.0255
-18.233498 4.3025813 -20.62611 11.016167
-17.877365 4.2898717 -20.767836 11.0225
-16.970642 4.20503 -20.587246 11.091949
-16.701405 4.2213144 -20.661896 11.089001
7.1838355 4.1402798 -20.611103 12
7.2161689 4.1827488 -20.504168 12
-20.573503 4.5377049 -20.613468 11.025357
7.129746 4.4375739 -20.649103 12
7.3771682 4.5215979 -20.60317 12.020124
-18.013592 5.1650629 -20.799105 12
-17.926062 5.0277977 -20.6056 12.008834
-16.773375 5.1317086 -20.66564 12.178
-16.312714 4.9057965 -20.575474 12.0845
7.1949587 4.8577089 -20.615747 13
7.2323914 4.9717307 -20.563013 13
-20.513945 5.3726678 -20.572596 12.009
-20.26544 5.3838792 -20.508875 12.0835
7.4239264 5.4404655 -20.614136 13.018375
-20.48505 5.6306477 -20.628275 12.001
-17.71146 5.7913785 -20.444139 13.0485
-17.489609 5.6601224 -20.794207 13.1295
-16.438431 5.8774962 -20.75654 13.001
-16.399158 5.8303862 -20.747993 13.168
7.2748318 5.66466 -20.585632 14
-17.72957 6.6708426 -20.573662 14
7.1407361 -1.3787749 -20.156769 6
-16.608522 -0.98180592 -20.139236 6
7.448524 -0.90890485 -20.016565 7
-18.098068 -0.56806993 -20.326696 7
-16.520742 -0.65076208 -20.275583 7
7.195878 -0.70166659 -20.202606 7
7.2113218 -0.61758047 -20.230806 7
7.6040587 -0.7968626 -20.35931 7
-16.560358 -0.37025434 -20.199795 7
7.3492031 -0.011925401 -20.226671 7
-32.009575 0.15246691 -20.09864 7
-30.37752 0.3809332 -20.119217 7
-21.479145 0.20623077 -20.319473 7
-20.877506 0.15555841 -20.061377 7
7.1582961 0.13966848 -20.213516 7
7.2243023 0.10362991 -20.257721 7
-30.515099 0.59758127 -20.008375 7
-21.032515 0.60947758 -20.105743 7
-19.578527 0.47224286 -20.142208 7
-21.034882 0.99751258 -20.063536 7.5
7.1730943 0.90366894 -20.198221 8
7.3079281 0.88663781 -20.108816 8.0142221
-33.251892 1.2587497 -20.141191 7
-20.945639 1.4228209 -20.12241 8.0058336
-18.206341 1.3769318 -20.050156 8.0446005
-20.981388 1.6969155 -20.245626 8.0439291
7.1532278 1.7003362 -20.216805 9.00875
7.3081207 1.6946328 -20.113228 9.0206251
-20.818434 2.3709996 -20.010582 9
-20.749271 2.2923832 -20.194103 9.0082502
-18.175577 2.2517748 -20.146807 9.0093889
-17.987032 2.3570335 -20.12525 9.0305004
-33.24242 2.5643311 -20.135252 8.1665001
-33.149727 2.5007343 -20.29767 8.1709995
-28.389095 2.7015584 -20.255058 9.0174999
-20.841991 2.6356254 -20.148436 9.0356007
-20.698853 2.5674434 -20.158916 9.0518999
-18.219233 2.4559004 -20.091036 9.0009165
7.1679263 2.5197198 -20.191282 10.007955
7.3505077 2.6130934 -20.157207 10.020625
-27.314716 3.1678228 -20.243792 9.1025
-18.199856 3.1697054 -20.065451 10.009
-20.592115 3.4100795 -20.23048 10.0091
-18.139261 3.3327937 -20.176609 10.0046
7.1748471 3.3254337 -20.177307 11.009723
7.3167434 3.4564464 -20.287453 11
-20.554771 3.6342926 -20.222383 10
7.2095928 3.9783144 -20.107117 12
-20.859854 4.3503108 -20.222546 11
-20.49803 4.3404899 -20.214088 11.0075
-20.356548 4.3257127 -20.215864 11.053666
-18.181622 4.1337862 -20.179537 11
-17.069942 4.3532438 -20.341459 11.1755
-16.642151 4.2279005 -20.240623 11.0105
-16.195496 4.0877953 -20.307613 11.01725
7.1775184 4.3056154 -20.210762 12.021875
7.2177238 4.0977645 -20.281071 12
-20.467649 4.5164294 -20.275797 11.007667
-20.370579 4.5205994 -20.348192 11
-16.603741 4.6850867 -20.123581 12.158101
-16.286564 4.6042166 -20.202374 12.15
-15.816765 4.4873877 -20.055614 12.149
7.3363476 4.5201735 -20.267536 12.268375
-18.235025 5.1022673 -20.113188 12.0255
-17.776712 4.9582253 -20.199343 12.026571
7.2431979 5.0809808 -20.238451 13
-20.50774 5.2409201 -20.103302 12.011
-20.290916 5.3738298 -20.179031 12.002591
-17.832705 5.4072323 -20.232691 12.115833
7.2973094 5.5765424 -20.097733 14
-20.220177 5.6479263 -20.094463 12.08875
-17.82222 5.8601894 -20.332851 13
7.2867031 5.640254 -20.275721 14
-20.144646 6.2672997 -20.142651 13
-19.994701 6.208683 -20.255373 13.167
-20.060354 6.4722261 -20.181393 13
-17.804468 6.7086425 -20.280146 14
-19.78899 6.9551115 -20.120399 14.16
-17.803783 6.8898005 -20.321026 14
-16.503397 -1.4375612 -19.973616 5
7.1662149 -1.3742726 -19.80282 6
-16.8083 -1.02669 -19.827599 6
-16.605457 -0.96639854 -19.761175 6
7.4219189 -0.88595593 -19.89846 7
-16.75798 -0.69844818 -19.994358 7
7.198122 -0.79297054 -19.741711 7
7.2523746 -0.56237274 -19.71372 7
-16.456627 -0.34417731 -19.680258 7
7.3856158 -0.033227075 -19.770569 7
-21.302757 0.14996301 -19.913048 7
-21.083065 0.29066831 -19.776731 7
-20.703127 0.28029025 -19.920982 7
-18.507755 0.31178427 -19.664858 7
-18.34478 0.28214619 -19.795973 7
7.1676812 0.093263395 -19.792555 7
7.3905048 0.14165889 -19.689356 7
-33.263405 0.48953465 -19.962898 7
-20.933609 0.57106102 -19.923304 7
-20.762264 0.5290913 -19.617447 7
-18.514578 0.61081213 -19.690649 7
-18.393713 0.61506045 -19.806326 7
-33.339443 1.1956168 -19.849743 7
-21.033422 0.91759306 -19.863855 7.2525001
-18.423473 0.81000113 -19.74589 7
7.18332 0.8491528 -19.853634 8
7.3431716 0.88935888 -19.771019 8.0058126
-21.231243 1.2307612 -19.715704 8
-20.968836 1.4024082 -19.826458 8.0156994
-18.4006 1.553984 -19.79571 8
-18.232382 1.4183042 -19.861614 8.102643
-20.981579 1.7094138 -19.835407 8.0263567
-20.777655 1.7556741 -19.850647 8.1590004
-18.164703 1.6079798 -19.912807 8.0782499
7.1846075 1.6514889 -19.781408 9
7.3504381 1.7409713 -19.817654 9.0240993
-20.921534 2.1979644 -19.776155 9.0020008
-20.737179 2.3212373 -19.794632 9.0142002
-18.163349 2.285336 -19.880314 9.0625715
-17.955988 2.3827472 -19.787111 9.1564999
-28.484007 2.6357341 -19.690239 9.0144997
-20.836584 2.6150844 -19.785593 9.0299997
-20.711367 2.5093834 -19.848646 9.0379171
-18.296877 2.4602919 -19.87554 9.0574999
-17.98806 2.4070337 -19.849043 9.1700001
7.1881757 2.4489291 -19.76454 10
7.3307223 2.5942864 -19.809475 10.02161
-28.260662 3.1817207 -19.742043 9.1569996
-20.70491 3.1655874 -19.64282 10
-18.116226 3.1797514 -19.841412 10.02225
-17.890228 3.1794629 -19.701582 10.0931
7.1934443 3.1569593 -19.810644 11
7.3045464 3.011873 -19.644951 10.523251
-20.896019 3.2738023 -19.713314 10
-20.588015 3.46187 -19.815413 10.014967
-18.133032 3.3805702 -19.798561 10.0702
-17.908163 3.2509346 -19.790255 10.057167
7.1884422 3.2910094 -19.73085 11
7.3407788 3.4275455 -19.820415 11.028313
-20.679054 3.6561089 -19.900515 10.178
7.2936592 3.8084958 -19.767683 11.516167
-20.525614 4.3317289 -19.796045 11.002858
-20.303328 4.3309188 -19.832266 11.1635
-18.129902 4.0938668 -19.775 11
-17.841579 4.2040563 -19.782537 11.024562
-17.545496 4.1330895 -19.650705 11.023
7.2972097 4.1900764 -19.830906 12
-20.462404 4.5337057 -19.848232 11.051625
-17.734533 4.4010615 -19.811825 11
-15.920244 4.6405053 -19.889584 12.17
7.2788892 4.6708579 -19.846148 12.75
-20.356281 5.1757383 -19.620205 12
-16.428886 4.8359594 -19.884447 12.057334
7.266449 4.841434 -19.910622 13
-20.634661 5.3360648 -19.976994 12
-20.301775 5.3547473 -19.806686 12.0035
7.3053374 5.4854164 -19.700289 14
7.3094792 5.6131792 -19.88052 14
-20.155853 6.1871052 -19.820715 13
-19.943008 6.9906244 -19.87674 14
-16.515884 -1.3985145 -19.440002 5
7.1878977 -1.3745884 -19.457954 6
7.2190857 -1.3142929 -19.343643 6
-16.606796 -0.97749114 -19.359097 6
7.462935 -0.87382346 -19.364515 7
-16.590813 -0.6566146 -19.431047 6.7777777
-16.330366 -0.56830776 -19.5987 7
7.2815204 -0.56866443 -19.422848 7
7.64605 -0.78247231 -19.345942 7
-20.985792 -0.036510848 -19.226339 7
-16.563381 -0.22650203 -19.321739 7
7.4215479 -0.0099033471 -19.333557 7
-21.0179 0.29041368 -19.387085 7
-20.720657 0.27598655 -19.551924 7
-18.698273 0.25698531 -19.516146 7
7.1835799 0.083875716 -19.466253 7
7.223166 0.15146816 -19.362228 7
-21.120525 0.73351872 -19.220989 7
-20.765175 0.62970656 -19.463293 7
-20.933832 0.85067862 -19.349913 7
7.1907578 0.86419815 -19.53619 8
7.3265028 0.86064816 -19.405516 8.0046663
7.6066914 0.88449711 -19.321165 8
-20.966923 1.3638411 -19.440411 8.0205498
-20.777328 1.4028521 -19.294277 8.0039997
-18.529175 1.2139637 -19.273491 8
-18.292076 1.4055325 -19.507179 8.0453176
7.3170471 1.5964509 -19.231041 9
-20.970428 1.692695 -19.374401 8.0267859
-20.75028 1.7053232 -19.292507 8.14925
7.178781 1.6552362 -19.411108 9
7.3199692 1.6643723 -19.381186 9.0050001
-20.995317 2.2212164 -19.536291 9.0279999
-20.719568 2.2933266 -19.364925 9.007
-18.145638 2.2550128 -19.385466 9.0415907
7.2345071 2.3762636 -19.287563 10
-20.831135 2.5627294 -19.382603 9.0452499
-20.697201 2.5761523 -19.302881 9.0879993
-17.99526 2.4004512 -19.39006 9.1739998
7.1789804 2.505121 -19.415213 10
7.3641324 2.5402129 -19.483543 10
-18.003181 3.1679583 -19.587252 10
7.2358022 3.1546535 -19.395042 11
-20.860256 3.24279 -19.378761 10.014
-20.609932 3.4018633 -19.47377 10.006611
-20.395054 3.4279168 -19.459766 10.159
-18.102348 3.3067718 -19.540142 10.0155
-17.996771 3.2264314 -19.269178 10
7.1783218 3.3404996 -19.425985 11
7.3999028 3.413749 -19.374407 11
7.2858787 3.8813908 -19.362616 11.888889
-20.541513 4.2608137 -19.400087 11.005227
-20.306381 4.2850962 -19.348003 11.09125
7.1927457 4.2444572 -19.383209 12
7.3641033 4.2228785 -19.419546 12
7.6201429 4.2594967 -19.235586 12
-20.436182 4.5345273 -19.455086 11.058333
-20.339663 4.4677582 -19.455338 11.010834
-17.453831 4.7176957 -19.290104 12
7.2937098 4.6839209 -19.401381 12.9
-20.520378 5.1388927 -19.422939 12
-20.303448 5.1244135 -19.358362 12
-17.328796 4.8218231 -19.207359 12
7.317781 5.0105143 -19.344778 13
7.6703386 5.1415319 -19.211569 13
-20.647806 5.2806578 -19.53282 12
-20.285402 5.3322439 -19.433392 12.002
7.3572631 5.4375916 -19.363197 13.833333
-20.103485 6.3418102 -19.529255 13
-19.71784 6.8554344 -19.340807 14.1635
-16.485947 -1.3649096 -18.983688 5
7.2220926 -1.3287446 -19.015141 6
-16.587526 -0.95830828 -18.95446 6
7.4883108 -0.86798394 -19.183498 7
-16.565746 -0.66680962 -19.011423 6.4285712
7.2790966 -0.6292572 -19.084465 7
7.6578641 -0.77857935 -19.068211 7
-16.507187 -0.27833226 -18.924202 7
7.4168921 -0.035187513 -18.925058 7
-21.300694 0.20694052 -18.938848 7
-21.121964 0.29857534 -18.996592 7
-20.480301 0.27697602 -19.130659 7
-20.391855 0.35108531 -19.160229 7
7.1910896 0.017575201 -19.157166 7
7.2213798 0.085842341 -18.935106 7
-21.305414 0.78044075 -19.018545 7
-21.135403 0.63831913 -19.084278 7
-20.571312 0.55263257 -19.021526 7
-21.101103 0.97237796 -19.100863 7.3368335
7.3365159 0.85248053 -19.026564 8.007143
7.6212044 0.86773956 -18.916941 8
-21.213301 1.2143506 -19.117985 8
-21.055618 1.3441333 -18.986122 8.0038748
7.2791991 1.584761 -19.011507 9
-20.95866 1.691286 -19.034071 8.0292501
7.3929873 1.674612 -19.00951 9.0123215
-20.950535 2.2388101 -18.961033 9
-20.752476 2.2969406 -19.046066 9
-18.227766 2.1920536 -19.104708 9.0307503
7.2449279 2.3580153 -18.984529 10
-28.429323 2.7968497 -19.015205 9.0284996
-20.857885 2.5675123 -19.094643 9
-20.689711 2.5434332 -19.021357 9.0338993
7.3886466 2.5576982 -18.995481 10.013269
7.6014671 2.5276103 -18.84322 10
-28.520388 3.1513112 -19.157116 9.0035
-28.229897 3.1353135 -19.08116 9.1599998
-18.121847 3.0932035 -18.873623 10
-17.878962 3.09934 -18.994495 10.0541
7.2568402 3.1151578 -19.005289 11
-20.85758 3.211895 -18.939686 10
-20.627647 3.3899279 -19.032549 10.020782
-17.638205 3.3128221 -18.976692 10.174
7.3893847 3.398041 -19.00522 11.0115
7.6129646 3.3604252 -18.832764 11
-20.533028 3.6281695 -18.996164 10.004
-17.446369 3.9836063 -19.056801 11.022
7.3144412 3.8304727 -19.002687 11.841
-20.5012 4.2987442 -18.988764 11.003633
-17.38121 4.1284299 -19.010002 11.09375
7.4224725 4.2455673 -18.987606 12
7.6374626 4.2006435 -18.838173 12
-20.447451 4.6071091 -18.913794 11.0895
-20.31201 4.5049543 -18.963118 11.09
7.3233871 4.6303205 -18.97822 13
-20.480288 5.1023755 -19.199738 12
-17.695892 4.908402 -18.85767 12.028
-17.366962 4.9053812 -19.036369 12.02475
7.4840493 5.0867682 -18.987942 13.010358
7.6903095 5.0940523 -18.936604 13
-20.265579 5.25986 -19.184999 12
-17.32045 5.4999042 -18.971022 13.02975
-17.063061 5.3367743 -18.972715 13.0955
7.3732648 5.4266744 -19.042713 13.833333
-17.250961 5.6605258 -18.994011 13.057667
-16.954319 5.7865696 -19.002426 13.565001
-17.265118 6.1307278 -18.959415 14.143499
-19.78278 6.7092495 -18.842251 14.159
-17.057167 6.4390664 -18.819014 14.17
-16.461098 -1.3334459 -18.553617 5
7.2427559 -1.3399073 -18.486099 6
-16.563831 -0.92579377 -18.757256 6
-16.280111 -1.1315618 -18.413746 6
-18.288895 -0.61176902 -18.752308 7
-17.794884 -0.53903919 -18.644339 7
-17.538004 -0.71675831 -18.699726 7
-16.569489 -0.63038695 -18.53404 6.8461537
7.3209085 -0.55344546 -18.496851 7
-19.438694 -0.3485631 -18.703421 7
-16.480766 -0.3434127 -18.609627 7
7.4596462 -0.023062319 -18.653236 7
-21.356678 0.24214408 -18.582796 7
-21.124475 0.260499 -18.64592 7
7.3089437 0.062469482 -18.650997 7
7.6136055 0.062840767 -18.572821 7
-21.36455 0.77947259 -18.727192 7
7.3648977 0.7976191 -18.694305 8.0407505
-20.976421 1.091881 -18.619732 8
7.3712206 0.83078104 -18.593365 8.0041151
7.6265345 0.85829008 -18.687454 8
-21.05452 1.296626 -18.597246 8.0168333
7.2761555 1.5684545 -18.62396 9
-20.87851 1.656364 -18.519012 8.0857506
7.4150796 1.6476892 -18.562672 9.0262775
7.6085224 1.6700393 -18.700264 9
-20.910307 2.1943007 -18.562714 9.0135002
-20.79097 2.2913337 -18.701498 9
7.2736206 2.3245046 -18.575535 10
-20.855831 2.5462568 -18.626375 9.0887499
-20.727993 2.5339301 -18.595676 9.0877495
7.412446 2.5009406 -18.611454 10.016778
7.6111832 2.5122716 -18.678684 10
-20.875763 3.1851523 -18.641277 10.01425
7.2844977 3.0681071 -18.600368 11
-28.225624 3.2160647 -18.663395 9.0109997
-20.808132 3.2649057 -18.729542 10
-20.62565 3.3664992 -18.645418 10.025214
7.4155855 3.3515811 -18.631767 11.00695
7.6244688 3.3412118 -18.670656 11
-17.359129 3.790875 -18.517757 11.0646
-17.087524 3.6594663 -18.571957 11.1305
7.3149543 3.8344221 -18.615938 12
-20.639246 4.2326765 -18.609217 11.003563
-20.375444 4.3179173 -18.546677 11.006
7.4312663 4.1860623 -18.628347 12.006318
7.6493406 4.1773338 -18.676619 12
-17.295029 4.6261063 -18.563709 12
7.3416071 4.5937839 -18.635546 13
7.4396567 5.0521693 -18.583807 13.166667
7.7011814 5.055315 -18.714252 13
-17.377819 5.5249248 -18.569483 13
7.3926554 5.380033 -18.653097 13.857142
-17.375572 6.268218 -18.733337 14
-17.003334 6.22119 -18.694611 14
-19.79488 6.7533154 -18.753363 14.164
-17.085491 6.4138403 -18.716682 14
-16.46032 -1.2975318 -18.055496 5
7.2665424 -1.3120346 -18.228571 6
-16.552088 -0.93173015 -18.252495 6
7.5421786 -0.85336345 -18.185204 7
-18.11413 -0.57963407 -18.389177 7
-16.498152 -0.61487955 -18.164398 6.8461537
-16.306307 -0.578574 -18.257921 7
7.3303008 -0.6166575 -18.135292 7
7.6777639 -0.77322352 -18.217957 7
-21.09922 -0.016465999 -18.277096 7
-19.304701 -0.32175493 -18.369358 7
-18.601856 -0.016176425 -18.368969 7
7.4801092 -0.014264584 -18.33386 7
-21.232143 0.2688804 -18.220875 7
-21.070549 0.29922047 -18.313652 7
7.3394213 0.084855974 -18.219772 7
7.641849 0.10513213 -18.23671 7
-21.358208 0.77439433 -18.268007 7
7.3795319 0.78375489 -18.183884 8
-21.008116 1.0197109 -18.182686 7.5155001
7.347856 0.84549463 -18.239893 8.0065002
7.6379962 0.83998227 -18.239391 8
-21.099403 1.3176459 -18.316727 8.0122499
7.3415704 1.5527205 -18.197033 9
7.4891205 1.7435749 -18.242495 9.0227499
7.6257668 1.6387644 -18.231035 9
-20.893871 2.2504883 -18.291565 9.0186253
7.2911553 2.2877929 -18.179379 10
7.1949458 2.4584739 -18.320269 10.032
7.445538 2.5257123 -18.237688 10.0165
7.6383057 2.4700754 -18.22212 10
-20.773914 3.0916104 -18.282616 10.0125
7.2969766 3.030978 -18.200195 11
-20.805262 3.3207655 -18.280663 10
7.4469762 3.3729649 -18.230707 11.0165
7.6466312 3.286201 -18.208847 11
-20.687389 3.9830275 -18.100649 11
