# .PCD v0.7 - Point Cloud Data file format
VERSION 0.7
FIELDS x y z intensity
SIZE 4 4 4 4
TYPE F F F F
COUNT 1 1 1 1
WIDTH 1380
HEIGHT 1
VIEWPOINT 0 0 0 1 0 0 0
POINTS 1380
DATA ascii
-26.98773 4.2834167 11.29871 12
-26.545614 4.2392306 11.258761 14
-26.360641 4.3843608 11.251086 11
-25.943308 4.2823 11.203474 12.5
-25.5844 4.2700834 11.238569 11
12.940815 4.29738 11.28826 12
-56.660358 4.4475336 11.324903 12
-50.250027 4.5426278 11.316296 13
-50.081802 4.4242916 11.205229 12
-27.272125 4.4631777 11.31658 12.75
-27.131588 4.4905272 11.327053 13
-26.98867 4.4954309 11.380552 11
-26.650742 4.5103436 11.281708 12.5
-26.565069 4.507298 11.365405 11
-26.346725 4.5579023 11.236957 14
-26.081366 4.4115911 11.239449 11
-25.761524 4.406137 11.224074 11
-49.927254 4.6826262 11.376644 12
-27.296177 4.6966724 11.344738 14
-27.135941 4.7242851 11.293649 11.9
-26.899311 4.725337 11.257097 13
-56.597404 4.8848572 11.23341 14
-50.336212 4.8980026 11.252205 12
-27.231596 4.9018459 11.316982 13.333333
-27.145464 4.8334317 11.273165 11.111111
12.762466 4.8968863 11.351318 9
-64.853119 5.1421762 11.356339 12
-56.728382 5.180829 11.227135 13
-50.309059 5.0990872 11.355074 13
-40.942474 5.0645981 11.298843 13
-27.226252 5.0537257 11.323222 12
-27.150902 5.0801992 11.338187 13.5
12.835033 5.076324 11.283345 9
-56.682148 5.2255301 11.220631 12
-27.21055 5.3437181 11.266747 12.666667
-27.136513 5.2522092 11.342052 13.5
-26.098799 5.3702993 11.227576 12
-25.892893 5.2883158 11.277113 12
-25.743031 5.3784647 11.206799 12
-40.959023 5.4759636 11.313478 13
-27.224483 5.5246363 11.315516 13.5
-27.19553 5.5088568 11.293396 13
-26.986238 5.5141706 11.362185 12
-26.776203 5.5523634 11.391496 12
12.880314 5.5816975 11.357456 10
-27.220823 5.6477823 11.304525 13.5
-27.134132 5.7582588 11.334708 12.5
12.415756 5.6511207 11.20963 11
12.947319 5.7666607 11.219246 10
-27.201582 5.9157734 11.321456 13
-27.142176 5.8992295 11.265112 12.454545
12.663532 5.8780794 11.390793 13
-40.70063 6.2825561 11.356467 14
-27.213852 6.290978 11.296399 14
-27.186497 6.2037921 11.22175 13
-26.069708 6.3581672 11.224733 13
-25.703255 6.3290482 11.234947 13
28.931234 6.3432302 11.314484 13
-50.41679 6.570519 11.292622 14
-27.2363 6.4455581 11.286922 14
-26.885437 6.5586567 11.33046 13
-26.720819 6.5908027 11.379728 13
-26.240959 6.4611387 11.249521 13
-27.215162 6.7226434 11.323634 14
-27.121227 6.7920685 11.238853 13
12.353931 6.6487427 11.240335 13
-27.148794 6.898037 11.250546 13.25
-27.21332 7.1029334 11.22775 14
-27.063171 7.0269761 11.227399 13
-26.933369 7.1247559 11.242283 13
-25.954515 7.3497214 11.303824 14
28.053829 7.2278924 11.243209 14
-26.251045 7.4593897 11.245928 14
-25.861174 7.4324269 11.219355 14
-26.889193 7.6026049 11.340658 14
-26.656898 7.6191821 11.36988 14
12.474587 7.6041489 11.268 14
-27.115692 7.9159536 11.26736 14
12.227341 7.9399076 11.293075 12
-27.083832 8.1267157 11.252644 14
11.833466 8.44345 11.224257 12
12.047115 8.6133986 11.285112 11
12.360884 9.3861256 11.210434 14
11.825132 9.6461496 11.358541 14
-49.313942 -0.8529619 11.489436 3
-27.448471 -0.80964518 11.55762 0
-49.076778 -0.7909922 11.575628 4
-27.421101 -0.64245093 11.560116 1
-27.299109 -0.65826178 11.550186 1.1666666
-27.047791 -0.63751847 11.502483 2
3.238519 -0.65267456 11.586517 5
-49.080528 -0.45892337 11.525877 3.5
-42.202084 -0.46870607 11.424379 4
-41.955166 -0.562163 11.412933 3
-27.426519 -0.55564928 11.478997 3.6666667
-27.303967 -0.48924133 11.443069 2.6923077
-27.100498 -0.51769918 11.50257 4
-26.90353 -0.54514933 11.477716 3.5
-26.657722 -0.57033396 11.457901 3
-26.513659 -0.53356588 11.438644 3
-18.45816 -0.53206813 11.58215 0
-17.72802 -0.51600146 11.462188 0
-17.352583 -0.53203642 11.412769 0
-16.315994 -0.51146662 11.502472 0
-15.869567 -0.50483668 11.547281 0
-15.2486 -0.50396407 11.454306 0
0.30762672 -0.46433234 11.491349 1.6666666
0.58673894 -0.47494036 11.533198 1
-48.933895 -0.28720766 11.497084 4
-42.478764 -0.36753023 11.546522 5
-42.247116 -0.32009992 11.420422 4
-42.041988 -0.32238704 11.428612 4
-27.327694 -0.31182706 11.446331 3
0.31312728 -0.30820686 11.552598 3.5
0.52268231 -0.30955827 11.509364 3.3333333
-48.966702 -0.13086772 11.504966 5
-42.451576 -0.043421984 11.527948 6
-42.300034 -0.069242664 11.458099 5.1666665
0.550179 -0.1133711 11.471776 6
3.7723231 -0.19779162 11.500914 5
3.8132811 -0.11573641 11.504869 6
10.66677 -0.19165874 11.443074 5
-48.964584 0.1556938 11.503609 6
-48.786064 0.04888165 11.591576 5
-42.241383 0.18031047 11.420239 6
-42.169502 0.17421496 11.478861 6
0.32562017 0.18518254 11.578399 9
0.54574847 0.10540362 11.573501 8
0.65503561 0.14236584 11.443031 8.5
-48.945221 0.30714148 11.502435 6.5
-42.863647 0.34315634 11.537778 7
-42.718964 0.33218849 11.539865 6.75
-42.55777 0.37162015 11.431451 7
-42.202526 0.2008974 11.436531 6
-27.248217 0.25871873 11.426252 7
-9.6359444 0.31341177 11.480114 1.25
-9.3605413 0.3177748 11.597765 1
0.31964052 0.30129546 11.569186 10.5
0.59451485 0.32820582 11.471056 11
0.62723857 0.2560057 11.432857 10
-56.671261 0.51944566 11.457008 7
-49.082539 0.4633857 11.488434 7
-48.90559 0.48320356 11.527584 7
-42.720982 0.40970817 11.559114 7
-42.231579 0.43709445 11.525028 7
-42.136662 0.51975119 11.494892 7
-9.6620216 0.45440996 11.471019 4.9166665
0.38998604 0.40583307 11.58511 12
0.45848405 0.44860816 11.51128 12.5
-56.638298 0.61597264 11.53002 7
-49.043858 0.76466775 11.519031 7.3333335
-48.925186 0.72487271 11.584961 7
-42.600338 0.64800394 11.559162 7
-42.267281 0.67912614 11.473031 7
-42.138741 0.63728696 11.483599 7
-27.263527 0.68480343 11.430211 8
-10.05357 0.66060805 11.407408 9
-9.6517811 0.71705216 11.537805 10.625
-56.690887 0.9036355 11.517048 7
-49.0121 0.98761296 11.565487 7
-48.946465 0.92524433 11.568945 7
-42.647053 0.90284741 11.58394 8
-42.411758 0.8989079 11.448473 8
-42.285286 0.89816266 11.488287 8
-42.11076 0.89961469 11.546117 8
-41.993645 0.94071996 11.549349 8
-27.251596 0.91180813 11.43959 9
-9.8272934 0.81842983 11.425895 13
-9.7570171 0.84081537 11.489004 13.5
-64.970818 1.1144552 11.430695 7
-56.663185 1.1276051 11.432068 8
-49.292801 1.0885087 11.446795 8
-49.158752 1.037711 11.490596 8
-42.535088 1.0651374 11.566505 8
-42.281406 1.0933851 11.49653 8.7777777
-42.080711 1.1084992 11.551791 8.8000002
-27.275108 1.1489589 11.415503 9.75
-27.199188 1.1553457 11.460745 10
21.324461 1.1246346 11.466084 8
-65.001633 1.2724957 11.543032 7
-56.661968 1.3138903 11.424557 8
-49.310211 1.3143331 11.461839 8.666667
-49.074615 1.2920221 11.589632 9
-48.939526 1.222008 11.569963 8
-42.238613 1.2999237 11.556073 9.333333
-42.066147 1.2948793 11.445667 9.4444447
-41.968666 1.3633053 11.585767 8
-27.244278 1.3521329 11.440576 10.25
-65.016693 1.5430499 11.529558 7
-56.632 1.539979 11.471201 9
-49.425041 1.5016201 11.442135 9
-42.217468 1.4360232 11.483948 10
-42.087086 1.5201139 11.508869 10
-41.974606 1.5637612 11.425948 10.333333
-27.247967 1.5319351 11.443352 9.6000004
-27.142031 1.5034435 11.409322 8
-56.639637 1.7105494 11.466234 9
-49.239944 1.6456398 11.540692 10
-42.226341 1.619879 11.562085 11
-42.068169 1.6986127 11.531195 10.538462
-41.978718 1.64792 11.487265 9.8000002
-27.2596 1.7280182 11.415248 10.818182
-27.129433 1.7126697 11.499921 8
-2.5466461 1.6306055 11.541315 8
-64.910675 1.8382318 11.453974 8
-56.628716 1.8986443 11.473766 9.75
-49.315697 1.9163682 11.563236 9.25
-42.205517 1.8595092 11.566019 12
-42.123386 1.8672301 11.559429 11.222222
-41.966881 1.8594947 11.501486 11.25
-27.301073 1.8709856 11.418553 14
-27.109692 1.8679222 11.572461 8
21.340179 1.820455 11.454722 9
-64.949409 2.1724257 11.534922 8
-56.606266 2.1506531 11.442097 11
-49.474998 2.1016827 11.455786 10.5
-42.144169 2.0825458 11.575645 12.714286
-41.921974 2.1025107 11.502791 12.090909
-27.242132 2.1233191 11.424173 10.4
-27.186607 2.0997686 11.42346 11.5
-2.3513303 2.1031055 11.419238 10
-2.1982203 2.1724513 11.451797 10
-64.921158 2.2561469 11.554666 8
-56.64238 2.2940209 11.433511 10.666667
-49.490089 2.2215297 11.460921 12
-42.150543 2.2332432 11.57134 13
-41.922581 2.2928934 11.571989 12.375
-41.791939 2.2625139 11.475784 12
-2.4920025 2.2503283 11.520501 9
-56.630287 2.4977293 11.489801 12
-49.615868 2.5753667 11.420662 13
-49.428497 2.5008256 11.559336 13
-49.384384 2.4280703 11.575174 13
-41.877651 2.5167542 11.53301 14
-41.724995 2.408968 11.440428 14
-27.251333 2.5002792 11.431175 9.833333
-2.3455105 2.4636123 11.524731 11.333333
21.219322 2.4593873 11.52063 8
-64.854149 2.7231648 11.430271 9
-56.622437 2.7402301 11.489158 11.75
-49.655403 2.7683668 11.435125 14
-49.483032 2.7731948 11.588079 10
-41.73888 2.6923976 11.405621 14
-27.112896 2.7168334 11.493227 9
-26.755363 2.7365308 11.564295 9
-2.4102876 2.724551 11.458835 12
-64.917244 2.8781691 11.553593 9.5
-56.647381 2.8460062 11.461844 13
-49.620384 2.8878231 11.51576 10
-49.546288 2.8489435 11.532019 14
-27.224001 2.8136096 11.412473 10
-26.866989 2.9263234 11.436608 10
-2.500124 2.9126284 11.594198 12
-2.3141239 2.8601179 11.427208 12
-56.618656 3.0702763 11.45908 12
-49.774544 3.0197334 11.409981 11
-26.857475 3.0611537 11.560881 14
-2.4562597 3.1267238 11.483861 13.5
-56.600723 3.3512783 11.543903 14
-27.244152 3.3431132 11.417558 11.5
-27.191805 3.3136501 11.477211 10
-64.925652 3.4337196 11.591127 11
-56.57737 3.5661409 11.595436 12
-49.838303 3.4680586 11.459889 11
-49.732883 3.4911294 11.522649 11
21.169811 3.5335681 11.5054 9
-64.889389 3.6381063 11.512436 9
-56.648369 3.6869006 11.430527 11.5
-49.664215 3.7071233 11.528724 11.5
-27.116291 3.7264876 11.508862 10
21.177494 3.6211936 11.494335 9
-64.918274 3.950171 11.595943 12
-41.443069 3.9677169 11.403849 12
-27.255362 3.8491638 11.43088 14
-56.570164 4.0871 11.596256 13.5
-49.995235 4.1859422 11.407999 11
-49.75573 4.1366138 11.57324 12
-27.211704 4.1651335 11.404021 11
-64.884132 4.3242612 11.422903 13
-49.627235 4.3672566 11.580925 12
-41.46283 4.3723698 11.510014 13
-41.253258 4.2966866 11.411165 13
-40.931648 4.3508029 11.432709 13
13.584528 4.3700547 11.530152 12
-41.358856 4.4085083 11.432007 13
-40.838692 4.6697168 11.450262 14
-27.103855 4.7053318 11.475604 11
12.496967 4.6167049 11.408068 9
21.162865 4.7434349 11.502155 10
-64.859962 4.8926606 11.47185 13.333333
-56.62487 4.8337336 11.409761 12
-49.949436 4.8988247 11.556131 12
-40.860245 4.8408556 11.51476 14
12.875053 4.9142003 11.490587 9
13.347625 4.9856997 11.42024 11
-64.855156 5.0858536 11.501563 13.333333
-56.638035 5.1770425 11.547304 13
-50.198013 5.1911283 11.520178 14
-49.883839 5.1199994 11.496189 13
-40.859859 5.0498848 11.501853 14
-40.783226 5.0333304 11.46014 14
-50.286968 5.2922468 11.490584 14
-50.187866 5.386004 11.504244 14
-49.828697 5.3193765 11.466658 14
12.086021 5.3114882 11.56428 10
12.574928 5.2828789 11.402446 10
13.211058 5.2924938 11.490805 12
13.582239 5.244628 11.594976 13
-50.248566 5.4504247 11.527485 14
-49.746475 5.4434671 11.561245 14
-40.760464 5.4261332 11.515722 13
-27.168003 5.5687008 11.426271 12
29.393787 5.4315124 11.400454 12
-50.215984 5.6113572 11.511423 13
-50.191551 5.6631546 11.589563 14
-49.777107 5.6846447 11.494675 14
-40.651665 5.7840204 11.49132 14
-27.050419 5.6768632 11.507664 12
12.221395 5.6710167 11.552549 12
13.189485 5.8833628 11.403889 12
-40.780071 6.2542987 11.437008 14
12.612095 6.2736025 11.526418 10
29.076139 6.3715172 11.547863 13
-27.022589 6.7137642 11.455265 13
-26.966671 6.6480894 11.572308 13
12.638496 6.6460805 11.491662 14
12.385083 6.9925222 11.560027 14
12.730703 6.8653836 11.539021 14
28.093012 7.1567822 11.429005 14
28.390606 7.2322898 11.544582 14
12.321472 7.5576172 11.549068 14
-27.05217 7.6915779 11.483328 14
-40.389755 8.1074457 11.576951 12
12.068558 8.1388302 11.457563 13
12.36652 8.0402489 11.5662 13
12.264778 9.4119186 11.548191 12
-42.204449 -0.93392253 11.708458 2
3.2575893 -0.93820506 11.635356 4
-49.027691 -0.68726009 11.743841 2
3.1113999 -0.65573722 11.67408 5
-49.055145 -0.47447133 11.600571 3
-48.910225 -0.52875113 11.671249 3.5
-42.419151 -0.42484212 11.704829 5
-42.335274 -0.50869262 11.680111 5
-19.711721 -0.54932225 11.741892 0
-18.83778 -0.52989817 11.605251 0
-18.47447 -0.53255522 11.64562 0
-18.079142 -0.51720703 11.616533 0
-16.910101 -0.52061182 11.657535 0
0.47234917 -0.53055173 11.681911 0
-48.56189 -0.25786018 11.723608 4
-42.883625 -0.38623405 11.769184 5
-42.654842 -0.29624528 11.639006 4
-42.588284 -0.26271206 11.617384 4
3.2556336 -0.38027221 11.710432 6
-48.612431 -0.18183643 11.760716 4
-42.840134 -0.11201984 11.765251 6
-42.7654 -0.0097807646 11.714121 5
-42.586575 -0.031874895 11.612592 5
0.35205996 -0.1479983 11.602905 5.5
-42.9617 0.15768743 11.715265 6
-48.564007 0.29374909 11.732787 6.5
-43.105789 0.23005295 11.68697 6
-42.879929 0.29848251 11.657223 6.5
-9.9298649 0.28159121 11.749091 1
-9.0546398 0.33015332 11.65163 1
-56.647484 0.46359843 11.763544 7
-48.564445 0.5322957 11.708517 7
-43.082077 0.48322701 11.758834 7
-42.860039 0.4222531 11.664875 7
-9.9880848 0.40350312 11.716491 4.3333335
-9.3222132 0.45323882 11.61612 4.5714283
-9.015173 0.47160059 11.656853 4.8333335
0.40967476 0.47183049 11.636644 13
-64.945999 0.64887422 11.689355 7
-56.661003 0.66775578 11.781224 7
-48.805138 0.63340437 11.674692 7
-48.667637 0.75607347 11.751521 7
-43.049736 0.74674118 11.730011 7
-42.896759 0.62370199 11.706336 7
-9.4132118 0.65897596 11.614688 9.166667
-9.0398779 0.72264594 11.777878 10.333333
-56.65527 0.89819294 11.674011 7
-48.660435 0.96578956 11.766131 7
-43.074165 0.95259285 11.787548 8
-42.862122 0.87212211 11.743968 8
-42.119503 0.88821453 11.615191 8
-9.4279203 0.80612117 11.602373 13
-3.1287534 0.95618021 11.786142 11
-1.8579838 0.90016145 11.750792 12
-64.944168 1.1772676 11.631083 7
-49.078648 1.1819772 11.613582 8
-48.971241 1.1159309 11.648441 7.6666665
-48.723377 1.0191369 11.768512 8
-43.048241 1.0045156 11.7843 8
-42.704494 1.0929682 11.696315 8.666667
-42.225826 1.0272377 11.659836 8
-42.104313 1.1228089 11.62074 8.666667
-3.2116532 1.0205648 11.695584 12
-3.1480153 1.0501745 11.72542 12
-1.8925352 1.1173687 11.759131 10.5
-1.7390602 1.053435 11.792545 13
-56.612179 1.3530546 11.790915 8
-49.239361 1.3070378 11.603956 8
-49.101143 1.3174248 11.625715 8.5
-48.787407 1.337489 11.79356 8
-42.502628 1.3218224 11.670174 10
-42.074963 1.3154038 11.661593 9.7142859
-41.995605 1.3674654 11.626148 10
-3.2594783 1.2317882 11.754534 12
-3.1581438 1.2871563 11.690722 13.333333
-1.8433269 1.2682315 11.71691 11.666667
-1.7848386 1.3481547 11.653893 11
-64.948936 1.5003707 11.726765 7
-64.785378 1.4379079 11.709257 7
-56.64687 1.5263417 11.643329 8
-49.037094 1.576982 11.648764 10
-48.956779 1.5206182 11.66826 9
-42.080025 1.5320742 11.685018 10.2
-41.979664 1.4232999 11.629719 10
-3.2661052 1.4698312 11.705856 13
-3.1426766 1.4364157 11.700837 12.333333
-1.8201253 1.5403757 11.688862 13
-49.052261 1.6461108 11.66785 10
-48.968037 1.660147 11.726283 10
-42.241993 1.7518743 11.765129 12
-42.079823 1.714438 11.72504 10.388889
-41.986122 1.6602135 11.66593 11
-27.094151 1.7703465 11.611012 8
-3.2176032 1.6804723 11.780063 10
-3.1781168 1.700583 11.722827 11
-64.907265 1.995698 11.66449 8
-56.598335 1.8476987 11.632286 10
-49.224564 1.8802214 11.629039 10.333333
-49.063396 1.9092064 11.713182 10
-48.976318 1.8867266 11.657302 10
-42.046005 1.8922561 11.725327 11.875
-41.98484 1.9567549 11.709639 11.8
-27.065041 1.8410124 11.603324 8
-3.2321863 1.9105392 11.705233 12
-3.1681609 1.8369628 11.725168 12
-2.6840286 1.9888341 11.758848 8
-1.9764981 1.8670542 11.787994 11
-64.877289 2.0688665 11.663821 8
-56.609207 2.1093857 11.626997 11
-56.599983 2.1336694 11.679651 11
-49.310165 2.0126066 11.614174 9
-49.186459 2.1756914 11.681085 12
-48.971432 2.1201572 11.79879 12
-42.056923 2.0816882 11.738589 12.727273
-41.974163 2.1244957 11.7624 12.6
12.040177 2.1819534 11.677191 12
-56.604633 2.3992968 11.635395 12
-56.595028 2.3704495 11.728341 9
-49.296314 2.2249084 11.664078 10
-49.105679 2.237047 11.742806 11.666667
-42.268353 2.3811731 11.726877 14
-42.098076 2.2922466 11.712624 12.529411
-41.963058 2.2857704 11.760612 11.333333
-2.2920666 2.3027544 11.660387 11
-2.1664274 2.2968187 11.730832 11.5
-56.632172 2.5623119 11.617841 12
-56.58514 2.4265413 11.677589 12
-49.227119 2.5648003 11.769413 10
-49.133072 2.508352 11.767295 12.666667
-42.286201 2.4726968 11.756198 10
-42.024643 2.4400892 11.761514 13.5
-41.937908 2.4541588 11.744339 10.8
-2.4275446 2.4663632 11.633146 10
-56.598679 2.7155969 11.664099 13
-49.305248 2.6973288 11.699477 11
-27.076275 2.7873001 11.657972 9
-2.5145845 2.6002364 11.713143 12
-2.359524 2.7001996 11.689354 12
-2.1926236 2.6486654 11.778145 14
12.085709 2.6143925 11.725594 13
-64.880829 2.9646664 11.614915 8.5
-56.628006 2.8844051 11.619629 13
-56.561954 2.9658542 11.770369 14
-49.263309 2.9000006 11.699269 10
-41.895397 2.9464233 11.742298 11
-2.6031208 2.8741167 11.701942 10
-2.4597335 2.9788129 11.689257 11.5
-64.845978 3.0516999 11.715921 10
-56.588104 3.1022756 11.695209 14
12.181647 3.0666354 11.675924 14
-56.577038 3.2530184 11.702092 10
-41.923321 3.2414665 11.787949 11
-64.869476 3.5109396 11.694569 10.666667
-49.497028 3.5007379 11.760203 11
-64.867783 3.6161027 11.617025 11
-49.513893 3.6628842 11.757497 12
-49.255505 3.7919621 11.77346 11
-41.75029 3.6546736 11.626672 12
-27.052053 3.7479758 11.659315 10
-64.815742 3.8734055 11.796906 11
-64.86116 4.1634493 11.748363 11.5
-56.609081 4.1278009 11.673483 11
-49.717064 4.0494971 11.64724 11
-49.868084 4.2786012 11.612411 12
-49.643135 4.300971 11.768253 12
-41.659531 4.3590035 11.701946 13
13.187485 4.3698964 11.684888 13
-64.838829 4.5042167 11.782215 10.75
-64.791191 4.59551 11.787008 11
-49.713463 4.4604282 11.738513 12.5
12.459322 4.5231285 11.712635 9
13.363256 4.4533792 11.700423 13
13.632673 4.5361304 11.73938 9
29.527628 4.5996585 11.677024 10
-64.83123 4.6580653 11.672511 11.333333
-56.536064 4.6863871 11.705666 13.5
-49.889008 4.6251178 11.603939 12
12.369221 4.6989775 11.77165 9
13.376834 4.6593475 11.682131 11
-64.863129 4.887413 11.658169 13
-64.672546 4.8267198 11.770182 11
-59.028389 4.9985137 11.728325 13
-56.593349 4.9377184 11.759001 12
-49.800995 4.8644972 11.672016 13
-49.78796 4.8884802 11.679756 13
-64.835732 5.1103096 11.680344 12.5
-56.601803 5.0554495 11.649061 12
-49.676739 5.0232882 11.669735 13
13.405033 5.1976213 11.636749 12
-56.525894 5.3427348 11.738237 14
-49.634232 5.6564331 11.628408 13
11.996407 5.7492399 11.725357 11
-50.202343 6.1613231 11.630852 14
13.375763 6.0310836 11.715984 13
12.540483 6.4181523 11.723386 11
12.378424 6.68647 11.765089 12
12.598419 6.6932325 11.628561 13
12.773695 6.8630347 11.604355 14
11.421837 8.9610958 11.659229 14
11.952642 9.3418703 11.625914 13
12.109833 9.2629251 11.642528 13
-39.98838 9.5166321 11.697142 13
12.867847 9.5725079 11.762411 12
-42.503613 -0.82799029 11.878548 2
-1.8055235 -0.84788847 11.951377 1
-1.7473546 -0.90092641 11.950296 1.1333333
-48.987007 -0.76374161 11.806194 3
-48.715042 -0.71139789 11.872355 3
-48.455338 -0.60678017 11.962521 3
-42.886395 -0.66452456 11.962429 2
-42.691723 -0.6084882 11.803246 3
-18.369566 -0.73137558 11.821184 0
-18.132816 -0.60658646 11.809326 1
-8.2591381 -0.60738236 11.944141 0
-1.8301605 -0.73525602 11.982005 2.5
-1.7625841 -0.74315578 11.962529 2.3958333
-48.671169 -0.44833094 11.843682 3
-48.571106 -0.46343249 11.885274 3
-43.229332 -0.45353538 11.93707 3
-42.905609 -0.46919036 11.929011 4.25
-42.772125 -0.47464192 11.898276 5
-21.432171 -0.53406715 11.935558 0
-21.047035 -0.52333975 11.866493 0
-20.949261 -0.5374583 11.873238 0
-20.412413 -0.53574777 11.982689 0
-18.913378 -0.56127 11.913219 0
-18.752918 -0.51651359 11.828413 0
-1.8361862 -0.49648818 11.949236 3.8
-1.7738425 -0.49765912 11.926991 4.6666665
0.14009678 -0.47390246 11.884233 5
-48.632599 -0.35679191 11.860691 4
-48.577984 -0.24968266 11.833888 4
-48.358036 -0.24532068 11.827527 4
-48.1632 -0.27798671 11.929335 4
-43.075253 -0.23645242 11.878757 4
-42.999359 -0.25649357 11.84865 4
-1.8256975 -0.31687015 11.965178 5.1999998
-1.7763356 -0.29945377 11.96499 6
0.12184238 -0.30135423 11.990772 6
2.889019 -0.38266033 11.896299 6
3.8320251 -0.20829181 11.882745 5
-48.447006 -0.017817318 11.808178 5
-48.325836 -0.1834971 11.875246 4.5
-48.084335 -0.11084923 11.954353 5
-43.08987 -0.07229656 11.886337 5.6666665
-42.973186 -0.12518826 11.864071 5.25
-1.8236564 -0.12026554 11.979969 6.5
-1.7455516 -0.16478401 11.958529 6.5
2.9586661 -0.098661393 11.956219 7
-48.249756 0.15351857 11.918518 6
-43.268517 0.18727374 11.824987 6
-43.071159 0.086495623 11.907588 5.5999999
-42.97242 0.16443294 11.901806 6
-1.8176488 0.14838617 11.935497 7.75
-1.7718925 0.15296438 11.955313 7.4000001
-48.649456 0.38447866 11.854336 7
-48.430832 0.25370991 11.861517 6
-48.069733 0.29896429 11.962766 6.5
-47.999027 0.38445053 11.986609 7
-43.026543 0.25540924 11.902871 6.1999998
-42.977562 0.30028495 11.884943 6.5
-9.7354221 0.28615919 11.957472 1
-1.8173997 0.30881062 11.940938 8.5
-1.7516823 0.32055336 11.960423 8.6000004
-56.60498 0.52020979 11.950411 7
-48.424694 0.44436839 11.80173 7
-48.289322 0.47398409 11.893303 7
-43.504601 0.43942821 11.939612 7
-43.301689 0.43298909 11.871704 7
-43.058182 0.43695465 11.89881 7
-42.973595 0.42777848 11.982045 7
-9.752759 0.45696807 11.923907 5.416667
-9.0576353 0.50389659 11.83262 6
-1.8968458 0.51172358 11.906121 9.6785717
-1.7565426 0.48884335 11.923698 8.8000002
-48.50663 0.76164293 11.831476 7
-48.258793 0.71219844 11.948091 7
-48.171478 0.73039603 11.992245 7
-43.401802 0.65372491 11.964008 7
-43.263577 0.64654726 11.867087 7
-42.981606 0.66296268 11.944123 7
-10.139555 0.68810093 11.822407 10.1
-9.894515 0.76228839 11.863708 12.333333
-9.7727165 0.64434475 11.962268 9.333333
-2.0110097 0.78798628 11.89439 11
-1.9263463 0.69390351 11.912407 10.375
-56.630005 0.93227112 11.872973 7
-48.3829 0.95481515 11.915354 7
-43.426743 0.92390549 11.975912 8
-43.330822 0.96149999 11.937214 8
-43.110607 0.87301332 11.891268 8
-42.915142 0.8736186 11.953337 7.8000002
-3.118681 0.91550219 11.881811 11.3
-2.0733941 0.91248101 11.92982 11.6
-1.9210458 0.89714348 11.893585 11.78125
-1.7036055 0.91147137 11.889473 10.166667
-1.5605381 0.90585393 11.811451 10
-64.967163 1.1530451 11.887764 7
-56.630196 1.0417843 11.841185 7
-56.569202 1.1928971 11.971441 8
-48.719261 1.1133486 11.833158 8
-48.485981 1.0923476 11.938367 7.8333335
-48.379448 1.0270855 11.961758 8
-43.057396 1.082309 11.890315 8.6999998
-42.872242 1.0979811 11.848149 8.666667
-3.4912066 1.1948954 11.979989 12
-3.2010372 1.0870552 11.869118 11
-3.1784282 1.1426786 11.861063 12.4
-2.0055246 1.1000187 11.95548 8
-1.9000353 1.1076623 11.927733 11.083333
-1.6967579 1.0742899 11.92278 11.9
-56.610191 1.2096786 11.970747 8
-56.58989 1.2377126 11.872246 8
-49.10284 1.3479632 11.804726 8
-48.720421 1.3113575 11.859685 8.3999996
-48.513645 1.2610564 11.929975 8.5
-48.230171 1.2039754 11.986814 8
-43.025215 1.2572162 11.846933 9
-42.915833 1.2865272 11.942113 9.666667
-42.452785 1.3071027 11.952816 10
-42.288395 1.288079 11.890234 10
-3.2117095 1.3613083 11.873688 13.5
-3.154542 1.2946253 11.874301 12
-2.9612341 1.2933981 11.98973 9
-2.0327702 1.3019171 11.95215 8.5
-1.7103376 1.2552823 11.915065 11.333333
-1.5126532 1.3932561 11.995846 11
-64.869659 1.4724998 11.965919 7
-64.741096 1.5609558 11.889625 7
-56.61842 1.467647 11.870143 8
-56.571972 1.5126052 11.869682 9
-48.58271 1.5991459 11.946241 10
-42.900684 1.5243833 11.993105 11
-42.495415 1.4870408 11.935483 10.5
-42.214157 1.5175614 11.8101 11
-3.2009182 1.4160159 11.824707 13
-3.104836 1.4803821 11.88154 10.888889
-1.6646967 1.5424764 11.948373 9
-48.658417 1.6969377 11.930634 9.666667
-42.806412 1.6446478 11.959612 9
-42.633789 1.7429112 11.992164 9
-42.567871 1.7321234 11.975476 10.666667
-3.2948318 1.7392603 11.947081 10
-3.1057234 1.6909683 11.889316 10.75
-2.9871576 1.6664782 11.919604 11.333333
-2.1520815 1.7683502 11.866704 9
-1.9309204 1.6562481 11.86264 9
-1.5305173 1.6901524 11.975289 11
-1.2916313 1.7737924 11.913902 13
21.388371 1.7151871 11.970696 9
-56.567032 1.8179983 11.859571 10
-49.037712 1.9052478 11.800053 9
-48.841137 1.8939137 11.85688 9.75
-48.776001 1.9594536 11.921225 9
-42.62973 1.8071578 11.974807 9
-42.463612 1.9645875 11.88201 13
-3.2288578 1.8982257 11.922405 11.5
-3.1421442 1.917346 11.888916 11.75
-2.9831805 1.8959693 11.896719 11
-2.5174661 1.9694474 11.898132 10
-1.6809738 1.9346781 11.889949 10.5
12.683342 1.8004013 11.94838 11
-64.852425 2.0822611 11.905869 8
-56.567463 2.1100097 11.858997 11
-49.004082 2.1050057 11.870457 9
-48.940994 2.0717061 11.856953 9
-48.769371 2.0277734 11.916122 9
-42.407204 2.0084393 11.807394 12
-42.370274 2.1646421 11.846724 13
-42.068878 2.1674852 11.817067 13
-41.988766 2.17697 11.83378 14
-1.9501739 2.1477957 11.82395 12
-1.6987915 2.0055115 11.976643 10
12.147329 2.1061969 11.995646 12
-64.893364 2.2316742 11.888082 8
-56.612221 2.3988314 11.863813 8
-56.561882 2.3260121 11.911911 9.75
-49.013805 2.2394235 11.965509 9
-48.896324 2.208163 11.867006 10
-48.759846 2.2217646 11.959757 12
-42.643196 2.2958541 11.995462 14
-42.595367 2.3375649 11.950758 14
-42.054321 2.2956972 11.847831 10.333333
-41.944977 2.3018949 11.820775 12.714286
12.338354 2.3442466 11.993161 12
-48.964233 2.4903593 11.872426 11.666667
-42.347172 2.5024285 11.810387 10
-42.050014 2.5183203 11.818833 12.333333
-41.913692 2.4981792 11.836226 12.714286
-2.3526716 2.5598259 11.995513 12
12.535007 2.596374 11.88767 13
-64.818916 2.6480808 11.811321 9
-64.786034 2.709352 11.989397 9
-56.546368 2.6833634 11.977579 13
-49.074638 2.6967061 11.872002 10.8
-48.945358 2.6754384 11.929373 12
-42.013214 2.6528738 11.826452 13.5
-41.901134 2.7162981 11.859481 13.666667
-64.846634 2.9130003 11.933773 9
-49.245014 2.9242268 11.84737 11
-49.069126 2.8355083 11.857548 13.5
-48.8964 2.8590219 11.99324 12.5
-42.019119 2.9903967 11.848459 14
-41.915939 2.9075212 11.885566 11.727273
-64.81662 3.0740595 11.995958 9
-64.656998 3.1746967 11.852934 9
-56.54715 3.1196651 11.983931 10
-49.135132 3.1905136 11.882858 14
-42.245419 3.1473823 11.896221 11
-42.115574 3.158263 11.88317 11
-41.879467 3.0835631 11.888764 12.5
-64.801598 3.2612581 11.823158 10
-49.213867 3.2971787 11.881007 10.5
-49.093071 3.304095 11.962274 11
-42.111191 3.2665811 11.861402 11
-41.784187 3.3253601 11.861231 14
12.470373 3.3779879 11.938839 11
21.39749 3.3145697 11.982574 11
21.41654 3.2146988 11.989823 11
-56.604675 3.4312639 11.940729 11
-56.541824 3.434541 11.928837 12
-42.241455 3.5832605 11.903194 12
-42.111038 3.5781355 11.858325 12
-41.825211 3.5657966 11.956714 12
-64.831039 3.7463853 11.820339 10
-64.795662 3.72893 11.860809 10
-49.319809 3.6677773 11.885432 11
-42.278938 3.6702938 11.954666 12
-41.856075 3.6749411 11.919808 12
-41.7691 3.6781826 11.907581 12
-64.852295 3.8238935 11.833933 9
-64.694763 3.9000211 11.857327 10
-56.539894 3.9678614 11.931051 13
-42.226822 3.8165896 11.982599 12
-41.851852 3.901881 11.895842 12
-41.78318 3.8211808 11.92724 12
-64.790039 4.1807499 11.966702 10
-56.564949 4.143115 11.915987 11
-49.467258 4.1855264 11.864443 12
-49.292198 4.0901246 11.883823 11
-41.785755 4.001462 11.96781 12
-64.842308 4.3426323 11.855089 12
-49.607628 4.2175479 11.83112 12
-49.503632 4.3891501 11.886591 13
-49.389221 4.3171825 11.953051 12
-42.088402 4.3466873 11.971663 13
-41.764065 4.2868853 11.982353 13
-64.810783 4.4116058 11.951731 11
-56.514 4.4918728 11.945204 14
-49.237518 4.4885287 11.880823 12
12.528818 4.5703354 11.85006 9
-49.471222 4.7577686 11.905871 12
-64.868454 4.9464402 11.951832 12
-56.530983 4.897687 11.997004 14
-49.500511 4.9185109 11.957184 13
11.891081 4.8476348 11.926898 10
12.539455 4.8973012 11.850056 9
-64.753128 5.1765723 11.947197 14
-63.601833 5.0662322 11.913528 10
-49.652412 5.1600733 11.890097 14
-49.547981 5.1074328 11.992657 14
12.165522 5.0213709 11.933946 10
-41.744034 5.2423739 11.984098 13
11.919732 5.5617247 11.92448 12
13.388871 5.5400605 11.885874 12
12.555824 5.6225991 11.996878 9
13.555964 6.0789666 11.869912 14
29.463385 6.1011686 11.972822 11
12.50968 6.2993746 11.887897 11
12.574841 6.7103119 11.990358 10
12.08412 6.8058977 11.968755 14
12.293541 6.8998942 11.914099 12.5
13.325417 6.8166618 11.94809 12
13.040497 7.6693716 11.941154 12.5
-40.559208 8.0986319 11.818954 12
12.918633 8.1917963 11.97344 11
-40.551704 8.2643433 11.957649 12
12.538463 8.4976196 11.890935 13
12.247177 9.7940445 11.885116 12
-48.402027 -0.95981973 12.036646 1
-48.280006 -0.86368281 12.155329 1
-43.09528 -0.89759749 12.179182 1
-42.976627 -0.84475458 12.120813 1
-1.747784 -0.86855829 12.031882 1.2424241
-48.280746 -0.66141623 12.057117 2
-48.086472 -0.66551852 12.146855 3
-43.440758 -0.66557175 12.197681 2
-43.25185 -0.64119571 12.123133 2
-43.073715 -0.67973244 12.092384 2
-1.8204223 -0.6859076 12.041295 2.2407408
-1.7629412 -0.69791144 12.077027 3.2738094
-0.042039037 -0.78070575 12.07548 3
-48.234058 -0.45098454 12.056948 3
-47.714073 -0.44361782 12.094677 4
-43.459286 -0.42965239 12.196899 3
-43.323593 -0.47337461 12.111447 3.3333333
-43.11953 -0.45665774 12.035688 3.5
-20.757683 -0.53888857 12.065454 0
-1.8368589 -0.49604061 12.055492 3.7843134
-1.7503223 -0.49244326 12.091753 5.2857141
0.60738486 -0.50743473 12.006256 1
-48.334259 -0.38644642 12.032209 3
-47.960709 -0.38473815 12.061581 4
-43.875271 -0.30354297 12.193654 4
-43.554371 -0.24256739 12.065504 4.5999999
-43.399796 -0.21317053 12.120188 4
-1.8351682 -0.29410124 12.05089 5.1999998
-1.7407417 -0.28057227 12.075447 5.2916665
0.2855171 -0.3163608 12.169376 3.5
0.60079294 -0.31668228 12.002409 3.5
6.1088972 -0.31823313 12.018461 5
21.106361 -0.26412579 12.192458 7
-43.879864 -0.097746581 12.194716 5.3333335
-43.416313 -0.19800371 12.016829 4
-1.8266066 -0.044706449 12.082713 5.5
-1.7612375 -0.1123468 12.077093 5.5
0.33885622 -0.12534888 12.186357 6
0.60317278 -0.12756315 12.025483 6
-43.888401 0.066449046 12.182308 5.5
-43.761559 0.052518934 12.135828 5.5
-43.577908 0.011623979 12.075884 6
-1.849193 0.086702146 12.092033 5.5
-1.7504814 0.10755281 12.079463 6.5999999
0.53049064 0.12348416 12.178477 8.5
0.7064935 0.12287527 12.04068 8.5
-47.828075 0.38550848 12.116299 7
-47.765099 0.39351687 12.084815 7
-44.485546 0.23475286 12.044737 6
-44.284988 0.24797878 12.124376 6
-44.133423 0.31014377 12.086613 6.5
-43.892048 0.29224491 12.105904 6.3333335
-10.263382 0.31419033 12.153533 2.75
-9.5668821 0.30538639 12.063624 1.3333334
-9.2608938 0.31190073 12.125267 1
-1.8508397 0.29710245 12.129745 6
-1.7600483 0.30134386 12.082976 6.5
0.45771229 0.32705539 12.150317 11.25
0.66430408 0.26811594 12.05005 10.5
-48.291985 0.57611209 12.106907 8
-48.029301 0.45631182 12.006724 7
-47.892029 0.47927663 12.070545 7
-47.644505 0.47316703 12.153558 7
-44.095295 0.44141749 12.107578 7
-43.895966 0.49713087 12.144013 7
-43.66217 0.43449119 12.001268 7
-10.177598 0.45831919 12.048808 6
-9.7452793 0.55691534 12.134791 7
-9.4882917 0.47675943 12.086902 5.4047623
-9.2296886 0.44636714 12.153064 4.7142859
-1.892769 0.48651665 12.097916 8.5
-1.7603016 0.48142892 12.087289 8.0714283
-1.5494021 0.48248124 12.084501 8.5
21.138134 0.49953675 12.160477 7
-48.123528 0.74855113 12.023563 7
-47.902756 0.72892481 12.113635 7
-47.725391 0.74017477 12.17474 7
-44.2575 0.67948216 12.190894 7
-44.024261 0.66518569 12.154513 7
-43.805363 0.64826703 12.076648 7
-43.796955 0.65048212 12.103899 7
-43.005157 0.77207279 12.058935 7
-42.971741 0.6254639 12.004787 7
-10.402088 0.62382662 12.196397 9
-9.6081085 0.7900033 12.066738 13
-9.5992002 0.67186034 12.061742 10
-1.8123322 0.62419808 12.143759 7
-1.6759157 0.6153959 12.114311 7
-64.916382 0.81220937 12.11096 7
-56.601807 0.9087373 12.170742 7
-56.575813 0.96461582 12.187241 7
-48.084839 0.92808414 12.052206 7.5
-47.917988 0.94374084 12.122505 7.3333335
-47.65284 0.91752774 12.192696 7
-44.096348 0.94699275 12.19747 8
-43.908989 0.96538353 12.12479 8
-43.703827 0.8749063 12.135536 8
-43.570396 0.97605348 12.053586 8
-43.065533 0.95052683 12.066252 8
-42.928192 0.90857059 12.034544 8
-9.4587173 0.81410873 12.058249 14
-9.3075056 0.83351761 12.171873 14
-48.23951 1.1185451 12.069344 7.8000002
-48.058483 1.1224917 12.13313 8
-47.937801 1.073115 12.150877 7.5999999
-43.883671 1.0464604 12.139032 8
-43.681622 1.0665252 12.134064 8.6000004
-43.010025 1.0548557 12.118074 8
-42.920151 1.0996828 12.064061 8.7200003
-3.0231915 1.0793924 12.071738 7
-2.1557889 1.0244813 12.09547 11.5
-1.9049202 1.0912201 12.072515 9.1999998
-1.6856248 1.103066 12.117053 8.25
-1.5345939 1.1550621 12.114265 8.666667
20.963661 1.1896881 12.028703 8
21.045219 1.1421335 12.188521 8
21.325788 1.0852057 12.0251 8
21.45068 1.0697377 12.083268 8
-48.30658 1.3204672 12.075768 8.666667
-48.102173 1.2649944 12.124437 9
-47.999325 1.3508881 12.175032 9
-43.871319 1.2809355 12.166496 9
-43.621124 1.2918267 12.196338 9
-43.526764 1.286751 12.185913 9
-43.076767 1.3600626 12.058887 9
-42.926037 1.3269292 12.046506 8.833333
-42.74358 1.3386326 12.121759 9.818182
-42.569901 1.2834605 12.012182 10
-3.3790569 1.399905 12.083356 13
-3.0813367 1.3061798 12.037747 10
-2.9213111 1.3417982 12.048072 9
-2.381108 1.3548914 12.154572 12
-2.0541024 1.3341959 12.058383 9
-1.9134159 1.3054338 12.095375 8
-1.6830002 1.2731216 12.113103 11.333333
-1.2465749 1.3575705 12.198912 12
-64.896072 1.5154361 12.170154 7
-56.609875 1.5687431 12.107117 8
-56.571175 1.4777329 12.057104 9
-48.540977 1.4317179 12.106625 8
-48.314312 1.5728539 12.072178 10
-48.085098 1.5225689 12.163412 9.5
-47.939247 1.5780056 12.163073 8
-43.427326 1.5560496 12.174883 8
-43.222294 1.5473137 12.09414 10
-43.079933 1.5065851 12.032169 9.75
-42.883549 1.5515425 12.042962 9.5
-42.745224 1.5088228 12.116017 10.176471
-3.061661 1.4826127 12.0953 9.7142859
-2.0098667 1.5134706 12.036409 9.5
-1.8691536 1.4981478 12.060102 8.75
-1.7158971 1.5084091 12.073585 9
-1.3210105 1.5426422 12.100673 13
21.100088 1.5545478 12.158622 8
-64.843262 1.6782181 12.088984 8
-56.56662 1.7396812 12.116456 10
-48.439892 1.7326769 12.078087 9.333333
-48.139812 1.6709888 12.165705 10
-43.063999 1.688859 12.085609 10.25
-42.868248 1.6864961 12.046636 10.7
-42.746044 1.7080152 12.09129 10.4
-3.1828341 1.6668782 12.042246 11
-2.4975481 1.7773098 12.017485 9
-1.8273597 1.6736387 12.133055 9
-1.6538725 1.7359424 12.073777 10
12.084116 1.7032211 12.023181 11
12.435307 1.6494565 12.009134 9
12.650447 1.7319136 12.181642 9
21.346539 1.7780445 12.075916 9
21.424679 1.7573831 12.129412 9
-64.862213 1.9912386 12.021563 8
-48.615005 1.8521395 12.023149 9
-48.490829 1.9194551 12.055523 10.333333
-48.223724 1.8500856 12.184278 10
-48.164337 1.8958511 12.149387 9.5
-43.220615 1.9285698 12.177657 10
-43.116264 1.8979406 12.140332 11.25
-42.836521 1.9141799 12.106433 11.636364
-42.759052 1.8825846 12.070184 11.333333
-3.2139931 1.872673 12.10295 12
-3.1243706 1.8441778 12.106112 11
-2.0200086 1.9493579 12.182714 10
-1.9159346 1.8303671 12.083062 10
-1.7259541 1.883709 12.065611 10
12.148195 1.9117347 12.150345 10
21.060713 1.8171434 12.177843 8.5
-56.571659 2.0135121 12.104729 11
-48.550678 2.1181936 12.060322 11
-43.091026 2.1975229 12.17049 12
-42.854927 2.1124375 12.145164 12.823529
-42.755852 2.0978665 12.085023 12.75
11.972059 2.0206418 12.080218 12
12.560266 2.1803851 12.074398 12
21.198978 2.1872494 12.199829 10
-64.867035 2.2573018 12.039473 8
-56.55616 2.2698021 12.191541 12
-48.374092 2.2430499 12.166659 12
-42.866974 2.2819202 12.148243 11.592592
-42.758141 2.2673929 12.102481 11.428572
12.285981 2.3105693 12.182555 12
20.900023 2.2361462 12.032314 9
21.044975 2.3011072 12.178615 9
-64.822937 2.5322597 12.079021 9
-56.554394 2.5510097 12.19385 13
-48.653351 2.5361483 12.092667 11
-48.455738 2.4549799 12.165973 12
-42.914543 2.4272628 12.163675 11.5
-42.751598 2.4694099 12.070392 12
-2.434082 2.412046 12.000757 11
-1.8059273 2.5307741 12.111906 12
12.103049 2.468142 12.097919 13
12.587414 2.5239503 12.153407 10
21.347582 2.4630067 12.047755 10
21.495998 2.5488348 12.056587 10
-64.78334 2.7566009 12.059468 9
-56.519394 2.6728127 12.042234 13
-48.697323 2.6893754 12.08288 11
-48.540886 2.7416189 12.168402 14
12.4115 2.7977216 12.010776 13
21.421257 2.762908 12.028096 10
-64.829124 2.9201584 12.104721 9.25
-64.751236 2.9454699 12.136546 8.5
-56.51741 2.9702778 12.017801 14
-48.985153 2.9627092 12.017262 10
-48.743862 2.8922191 12.12471 10
-48.53548 2.8074305 12.198057 10
-2.4415541 2.9257674 12.057127 10.5
-64.803543 3.0854061 12.10927 10
-64.790131 3.1325903 12.148174 10
-56.533432 3.1495442 12.028069 10
-2.5874166 3.0931735 12.126937 13
12.556842 3.0113516 12.054383 14
21.100555 3.1521878 12.11413 9
-64.84935 3.2998774 12.048874 11
-64.751709 3.3370264 12.111537 10
-56.529545 3.2538929 12.00548 10
-48.96302 3.3059766 12.057646 10.5
-48.777809 3.3904843 12.172112 11
-42.504047 3.3500297 12.048891 11
12.512384 3.3282804 12.199446 10
20.875612 3.3256307 12.014292 10
21.076136 3.3367314 12.171083 11
-64.843613 3.5557199 12.020077 10
-64.758339 3.4115787 12.078087 10
-49.052773 3.4969673 12.052987 11
-48.864628 3.4374275 12.111717 11
-42.489731 3.5941551 12.058039 12
-64.82164 3.6929255 12.106979 11.333333
-64.784431 3.6793356 12.007713 10
-49.157532 3.6947114 12.028418 11
-48.914318 3.6695077 12.04528 11.333333
-42.479652 3.6302617 12.073799 12
21.082193 3.6729846 12.155094 11.5
-64.757149 3.9589884 12.183289 11
-56.551392 3.9793749 12.069029 11
-49.22905 3.9745741 12.006153 12
-48.964642 3.9343784 12.135603 11
-42.332161 3.9971948 12.093607 12
12.857913 3.8363123 12.150389 14
-64.805313 4.0903611 12.127977 12
-64.775841 4.0766621 12.151393 10
-49.116409 4.0171642 12.041276 11.666667
-64.861847 4.2352748 12.079751 11
-64.798454 4.2376347 12.158793 12
-56.535862 4.2994585 12.047523 13
-49.149559 4.3912745 12.119028 12
-42.257504 4.2284427 12.068373 13
-42.178711 4.2860074 12.009831 13
-41.817024 4.3286729 12.010065 13
-41.775303 4.2701249 12.041261 13
-64.771851 4.5745726 12.165417 12.5
-49.117355 4.4599609 12.101831 12
-42.234859 4.5878229 12.115046 13
-42.106827 4.4346433 12.008772 13
-41.826077 4.554626 12.064518 13
-41.715466 4.4957123 12.004118 13
13.534554 4.5881758 12.158024 11.5
-64.734482 4.6840754 12.156567 11
-49.232506 4.7121248 12.117302 13
-49.192917 4.7799811 12.036758 12
-48.99659 4.7149229 12.199718 13
-41.837418 4.7004395 12.107395 13
-41.766579 4.6793561 12.001545 13
-64.804214 4.9497366 12.046688 10
-56.556831 4.83883 12.012985 12
-48.966003 4.9042368 12.147356 13
-41.864384 4.981864 12.011551 14
-41.742672 4.9184651 12.150075 14
12.916443 4.9157505 12.096576 11
-64.71022 5.1458788 12.109781 13
-58.994076 5.0253339 12.128311 13
-56.535938 5.0110183 12.025488 12
-49.498505 5.1791129 12.003942 14
-41.926846 5.0708599 12.068237 14
-41.561619 5.0458879 12.178326 14
-64.711975 5.2405758 12.030539 14
-49.475407 5.2812314 12.125299 13.666667
-49.335964 5.2922378 12.142607 14
-42.0541 5.2406964 12.122656 14
-41.934704 5.2790318 12.078927 13.5
-41.667145 5.4367337 12.027777 13
13.221993 5.430408 12.026319 12
-49.295853 5.6477757 12.192644 14
-48.708126 5.7870007 12.101692 14
12.498066 5.7072821 12.145179 10
-41.654175 5.9129567 12.143489 14
-41.764366 6.0230608 12.186956 14
29.612627 6.1170111 12.023308 11
-41.615429 6.2791677 12.111588 14
13.519119 6.2341218 12.095135 11
13.624222 6.3228688 12.08499 11
29.477379 6.3201532 12.108412 12
-66.9272 6.5115347 12.11586 13
12.038789 6.5350137 12.095489 13
12.817585 6.6074009 12.082123 10
-66.824463 6.9306984 12.052519 13
-66.824867 7.0266151 12.055048 13
-66.873314 7.3494196 12.15926 14
-66.770111 7.2566624 12.159035 13
13.159255 7.3744249 12.184072 14
13.210163 7.443172 12.002624 12
29.492495 7.580255 12.036432 12
-66.772369 7.8761964 12.085342 14
12.530766 8.1133242 12.03853 13
-66.710907 8.2170582 12.198809 14
12.767294 8.3528433 12.168418 12
12.80529 8.2792072 12.075143 12
12.554415 8.8332014 12.19262 13
12.176615 9.5981245 12.071289 13
11.941206 9.7436943 12.19787 13
11.876879 9.9319925 12.139516 14
-48.190083 -0.83674979 12.215496 1
-43.456207 -0.83718985 12.364758 1.3333334
-43.155602 -0.8447457 12.268835 1
21.706167 -0.8953312 12.347829 7
-47.696011 -0.67278987 12.298758 2
-47.504128 -0.6113236 12.351188 2
-43.870499 -0.63415605 12.343497 2.6666667
-43.73307 -0.68362772 12.290323 2.5
-43.480999 -0.71592057 12.218142 2
-22.270462 -0.64086276 12.327947 1
-22.121349 -0.76407224 12.345482 0
-47.945572 -0.59607577 12.217613 2
-47.523243 -0.49784628 12.324824 2.6666667
-47.327911 -0.47509861 12.36433 3
-44.303543 -0.40108293 12.310721 3
-44.091965 -0.41217643 12.299198 3
-43.909046 -0.43307889 12.278695 3
-43.527863 -0.45624387 12.226944 3.5
0.3400749 -0.515257 12.205573 0.75
-47.922443 -0.36038673 12.223846 3
-47.582924 -0.39505535 12.330921 3
-47.267044 -0.24690068 12.240031 4
-47.088951 -0.24623087 12.28793 4.5
-44.879791 -0.25218558 12.386349 4
-44.697437 -0.2749311 12.374545 3.8
-44.502083 -0.22357196 12.352552 4
-43.984566 -0.26664725 12.226974 4.5
-1.7118483 -0.21699649 12.311598 4
21.455914 -0.30298525 12.380733 7
-47.715668 -0.17535299 12.218352 4
-47.337883 -0.12219161 12.29517 4
-47.188599 -0.14660275 12.270407 5
-46.846317 -0.18943912 12.344423 5
-46.677521 -0.12644756 12.364796 4
-44.906643 -0.075375974 12.389334 5
-44.752907 -0.081681237 12.383711 4.8000002
-44.214115 -0.13441262 12.267717 4.5
-44.136395 -0.16684005 12.272174 5
-43.923531 -0.080898523 12.239182 5.5
-1.9321909 -0.11138043 12.223347 5
-1.7156732 -0.11271968 12.225275 5
-47.781204 0.061140835 12.234475 5
-46.728199 0.071872562 12.385475 6
-46.58186 0.0069551468 12.395779 6
-45.650433 0.16547129 12.34041 6
-44.876209 0.10821056 12.364291 6
-44.683647 0.080943972 12.354027 6.25
-44.236641 0.046203971 12.275068 5
-44.067776 0.15793025 12.20943 6
-43.90451 0.14893273 12.231837 6
-1.7716947 0.16068146 12.245258 6
-47.502522 0.2228924 12.204382 6
-47.039345 0.23579672 12.300425 6
-46.662197 0.37894407 12.369279 7
-45.686501 0.33551526 12.386874 7
-45.536804 0.28878537 12.325294 6
-45.254539 0.28222311 12.300034 6
-45.112656 0.27940506 12.239967 6
-44.808262 0.24891594 12.242731 6
-44.718582 0.27079487 12.37973 7
-43.890701 0.2397449 12.240417 6
-10.049111 0.29316309 12.309701 1.6666666
-1.9122972 0.22912985 12.283772 6
21.167124 0.37464049 12.276481 7
21.283298 0.2957499 12.270473 7
-47.481911 0.46981147 12.203966 7
-47.25798 0.46916923 12.275617 7
-47.147011 0.45889118 12.298067 7
-46.963718 0.47090504 12.340798 7
-46.693428 0.47586495 12.38044 7
-45.536438 0.50565559 12.350019 7
-45.134476 0.48311889 12.293558 7
-44.881729 0.50922358 12.317348 7
-44.781303 0.52672106 12.231223 7
-44.597412 0.48380375 12.255136 7
-43.915855 0.44491345 12.264935 7
-10.175837 0.53481406 12.301612 7
-9.2664652 0.52767545 12.254616 7
-1.7613945 0.59534764 12.255924 7
-1.46608 0.53251016 12.268299 9
21.057905 0.46919864 12.392591 7
-56.58847 0.73181611 12.231678 7
-47.437111 0.69924319 12.277218 7
-47.219284 0.69047368 12.31986 7
-47.086193 0.67641032 12.357055 7
-45.737309 0.67245626 12.208462 7
-45.522224 0.73040652 12.370613 7
-45.034122 0.72394156 12.358583 7
-44.86451 0.72196996 12.331223 7
-44.610882 0.66836625 12.29215 7
-43.840694 0.70474458 12.293411 7
-10.405038 0.7184121 12.204982 11
-10.231603 0.74272192 12.232765 12
-10.135838 0.77263772 12.329269 12.75
-9.2226076 0.71046734 12.26489 10.5
-56.579403 0.92331421 12.304676 7
-47.66626 0.93818557 12.212305 7
-47.498581 0.92085743 12.266068 7.1999998
-47.299988 0.9616046 12.343965 7.6666665
-47.161053 0.91190881 12.345643 7
-46.915684 0.88181448 12.387801 7
-45.68195 0.953421 12.259605 8
-45.494949 0.89921176 12.398956 8
-44.841675 0.93409783 12.369236 8
-44.617741 0.88058895 12.33389 8
-44.520821 0.92819715 12.35247 8
-44.292183 0.91319811 12.259592 8
-43.850533 0.89407724 12.326991 7.9230771
-43.779526 0.92856538 12.347752 8
21.145056 0.94388074 12.259969 8
-64.879463 1.1436901 12.381475 7
-47.850925 1.069335 12.22206 8
-47.686764 1.0730335 12.282798 8
-47.474873 1.112041 12.346015 8
-47.302483 1.1072102 12.353897 7.5
-47.181667 1.0136992 12.38172 8
-45.693661 1.1983333 12.283417 9
-45.085609 1.1553162 12.382971 8
-44.876598 1.1688639 12.361965 8
-44.749153 1.0659384 12.34419 8.1428576
-44.570168 1.1001967 12.37674 9
-44.326263 1.1023166 12.328293 9
-43.876965 1.1077971 12.346973 8.5
-43.759594 1.0934118 12.30568 8.833333
-1.9042811 1.0867882 12.202025 8
-1.7386974 1.1373057 12.340719 8
-1.4901836 1.149832 12.274153 10
-1.2888904 1.1377231 12.334507 11
21.125038 1.0778166 12.349927 8
-56.546707 1.2327456 12.280438 8
-47.846985 1.2640526 12.266185 8.5
-47.709839 1.3386732 12.28968 9
-47.427662 1.300704 12.365408 9
-45.678696 1.2531765 12.298485 9
-44.760502 1.2003388 12.289002 8
-44.150051 1.3243622 12.322454 10
-43.880005 1.2930216 12.355541 9
-43.675816 1.2976903 12.270926 9.1428576
-43.536987 1.3761544 12.234451 8.25
-2.1196127 1.2512097 12.327323 12
-1.420772 1.2809255 12.21456 11
-1.3141532 1.3446624 12.318993 13
13.217424 1.3080579 12.369659 9
21.126495 1.3001716 12.354702 8
-64.847778 1.4570618 12.280314 7
-56.523106 1.5049204 12.355711 9
-48.021721 1.5933945 12.207792 10
-47.911797 1.4612467 12.305817 9
-47.511253 1.4666831 12.372209 9.5
-44.101326 1.5330787 12.359814 10
-43.880543 1.4785118 12.332646 9.8571424
-43.720623 1.4972184 12.329294 9.727273
-43.553379 1.489558 12.236411 9.2857141
-1.9206886 1.4795103 12.233339 8.5
-1.6994333 1.5302663 12.260521 10
-1.3013539 1.5336792 12.248204 14
-56.501247 1.7585993 12.345339 10
-47.88855 1.6749331 12.291986 9.5
-47.692829 1.7312521 12.36816 9.75
-44.002121 1.7369912 12.36321 12
-43.852192 1.6833377 12.331958 10.666667
-43.682068 1.6925122 12.335155 10.333333
-43.537376 1.7097487 12.285518 10
-2.3951063 1.7895261 12.340033 10
-1.7516265 1.6281794 12.22291 10
21.130167 1.7534727 12.292915 9
-48.206818 1.8364547 12.218941 9
-48.072948 1.8678401 12.257246 9
-47.951447 1.8804456 12.297703 11
-47.774185 1.8823597 12.366842 10
-44.223583 1.8025727 12.394836 12
-44.116711 1.8098366 12.391194 12
-43.863262 1.9243857 12.325837 11.428572
-43.68462 1.9211048 12.343909 11.166667
-43.480774 1.9838839 12.290339 10.333333
-43.371895 1.8113061 12.318232 9
-2.4037862 1.9193481 12.287821 11
-1.688446 1.837351 12.20723 10
21.065619 1.9176956 12.364277 9
-64.795715 2.0616846 12.217475 8
-56.514969 2.0473208 12.36616 11
-48.232277 2.1159353 12.209569 12
-48.123398 2.1392994 12.282269 10
-47.912071 2.0791819 12.359642 10.5
-43.84444 2.0794046 12.297824 11
-43.665745 2.1129217 12.370135 12.333333
-43.498627 2.0305104 12.317562 11
-43.258438 2.1646488 12.256021 12
-42.826759 2.132906 12.200912 11
-2.7258224 2.182055 12.316917 11
-2.4036207 2.087981 12.310742 11
12.180352 2.130151 12.352147 8
21.123817 2.1413257 12.361117 8.333333
-64.774422 2.2385049 12.228823 8
-56.498428 2.2907536 12.393688 12
-48.302982 2.263339 12.276614 10
-48.174881 2.388495 12.277805 13
-47.895443 2.3111253 12.377615 12.5
-43.83395 2.2946084 12.335446 12.5
-43.647324 2.3309898 12.396909 12
-43.485607 2.2462451 12.341743 11
-43.333347 2.2787507 12.278854 11.333333
-42.848606 2.3388226 12.225711 13.333333
-2.3309267 2.3574002 12.27461 11.666667
-1.6331844 2.2100422 12.251354 11
13.041317 2.2772822 12.252397 11
21.089262 2.2704868 12.281082 9
-64.804527 2.4509027 12.250666 9
-56.526146 2.4182975 12.395535 9
-48.280518 2.5528989 12.265802 11.2
-48.146286 2.4970384 12.307265 11
-43.51992 2.4841833 12.35382 12
-43.240875 2.4560828 12.319158 14
-43.13393 2.421561 12.274227 12.333333
-42.863064 2.5117757 12.317397 11.375
-42.75705 2.4773548 12.270297 11.333333
-2.7842035 2.5336604 12.25453 12
12.643605 2.5167961 12.379583 8
12.8542 2.4739203 12.38938 11
21.138926 2.511554 12.317325 9.333333
-64.75489 2.6504893 12.256968 9
-48.277603 2.7321084 12.284669 12.666667
-48.172836 2.7340376 12.306598 11.5
-47.9175 2.7379773 12.361403 10
-43.814575 2.6020634 12.387022 14
-42.907612 2.6870191 12.304671 13.5
-42.745495 2.7306175 12.35661 13
-2.4166327 2.7003989 12.305019 13
-2.3596854 2.7335894 12.276726 12
12.188832 2.6890709 12.262506 12
12.737949 2.6329854 12.246857 13
12.882591 2.7970219 12.335005 12
21.096155 2.7178364 12.386195 10
-64.822708 2.8363729 12.338867 10
