# .PCD v0.7 - Point Cloud Data file format
VERSION 0.7
FIELDS x y z intensity
SIZE 4 4 4 4
TYPE F F F F
COUNT 1 1 1 1
WIDTH 1312
HEIGHT 1
VIEWPOINT 0 0 0 1 0 0 0
POINTS 1312
DATA ascii
-3.7185121 -0.24178049 13.955023 6.2214837
-3.6363261 -0.25119239 13.932922 6.1742425
-3.3890467 -0.23006204 13.901407 7
3.736083 -0.26010147 13.926807 5
-3.7256613 -0.18679887 13.932192 6.4142857
-3.6701488 -0.17467801 13.965073 6.4198718
-3.6691036 -0.06593512 13.959866 7
-4.2622976 0.092158854 13.909093 7
-13.65872 0.18808463 13.970201 0
-4.3541365 0.14654073 13.99279 7
-4.2747726 0.18620822 13.956079 7
-3.4293785 0.18102688 13.914253 7
-15.611403 0.23329996 13.931555 1.5428572
-15.597631 0.24865012 13.943986 1.8333334
-13.736036 0.22634441 13.982366 1.5
-13.253853 0.25479019 13.976627 1.5
-16.152018 0.31080812 13.983064 3.5
-14.634748 0.35121059 13.992979 4
-14.094106 0.31424809 13.946705 2.5
-13.771744 0.3177872 13.984801 4
-13.656035 0.37785903 13.924667 5.3333335
-13.267221 0.38528025 13.935482 5
-12.954658 0.32943437 13.996531 4
-11.915559 0.394104 13.977175 4.5
-4.3088808 0.38650745 13.946568 6
-4.2575216 0.38655198 13.92748 6
-16.053532 0.40674838 13.951661 6
-12.876317 0.40163547 13.913681 5.5
-12.500656 0.46793914 13.954782 7
-4.4390082 0.41426706 13.968441 6
-4.2225904 0.44035953 13.935571 6.181818
-4.1571541 0.43232962 13.922735 6.25
-4.3612432 0.57888877 13.945444 7
-64.68145 0.67187929 13.940132 7
-66.842621 0.83071357 13.9773 7
-64.653633 0.86046171 13.969172 7
-62.488834 0.86611426 13.931924 7
-62.316708 0.85052335 13.969909 7
-62.271191 0.841663 13.940202 7
-66.844406 0.91693592 13.950651 7
-3.8042066 -0.26262593 14.076495 6
-3.7392645 -0.26183328 14.05614 6.0333333
-3.8434317 -0.14283313 14.076042 6.727273
15.554288 -0.15988228 14.017976 7
-3.8603282 -0.099313959 14.063732 7
-3.7509837 -0.070030943 14.035269 7
-3.6065166 -0.080881909 14.019727 7
-16.682409 0.17971718 14.06588 0.5
-16.683046 0.27520508 14.080571 3
-16.142664 0.22888097 14.065524 1
-14.697701 0.23464519 14.035116 1
-12.787201 0.26028344 14.063845 1.5
-12.280023 0.27544972 14.068103 1.5
-11.140907 0.2914395 14.043933 1.3333334
-4.3331895 0.28790015 14.092447 7
-16.18322 0.3098695 14.092152 3.4000001
-15.690085 0.32453352 14.040117 4.2080002
-15.179301 0.31605279 14.04589 3.2586207
-13.722814 0.3993904 14.050058 6
-13.29467 0.37795708 14.067283 4.8000002
-12.955737 0.32943168 14.009443 4
-12.803855 0.35250407 14.09259 4
-12.454609 0.3432005 14.023193 4
-12.371733 0.37827879 14.038388 4.5
-11.729383 0.33064136 14.034951 2.1771846
-11.181267 0.38798228 14.042336 4.0162601
-4.367568 0.37453386 14.058305 6
-14.752506 0.41331014 14.075681 6
-14.163172 0.43037596 14.068727 6
-11.752415 0.41121036 14.085589 4.5
-11.173569 0.4236834 14.084882 5
-4.2864232 0.40516639 14.026552 6
-64.649368 0.53688431 14.047633 7
-66.87059 0.66476494 14.091161 7
-64.666748 0.67124802 14.058007 7
-64.625557 0.88088989 14.048233 7
-66.772659 0.90466809 14.029196 7
-37.0914 -0.54463983 14.150041 7
-3.831306 -0.24922255 14.100906 6.1111112
-3.7643764 -0.26609567 14.146554 6
0.65744519 -0.28126994 14.192881 3
-4.100029 -0.19075345 14.132212 6.5714288
-33.545895 0.18174008 14.194823 5
-33.481941 0.18689264 14.189335 5
-33.379921 0.18506259 14.192444 4.5
-17.206442 0.19069773 14.151554 0.66666669
-15.762513 0.18661556 14.178579 0.5
-33.420506 0.22057378 14.17326 5.6666665
-33.345699 0.23444259 14.163502 5.5
-33.271091 0.28117484 14.150105 6
-17.213408 0.29255533 14.127583 3.5
-16.684937 0.24661119 14.174438 1.995
-15.806043 0.29077119 14.173067 3.5
-15.220002 0.23440039 14.130545 1
-4.507803 0.27495903 14.112576 7
-4.375082 0.26520067 14.128391 7
-33.216423 0.30185878 14.16128 6
-33.192314 0.30331641 14.169612 6
-15.710328 0.33380798 14.125073 4.4000001
-15.226723 0.32886761 14.150475 3.6666667
-14.218032 0.3797183 14.142216 4.6666665
-12.27996 0.34872568 14.183484 3.512295
-11.210058 0.33495128 14.137052 3
-4.3385353 0.32739961 14.195494 7
-4.2676144 0.37931347 14.158028 6
-62.137238 0.47898683 14.135022 7
-12.807546 0.44647554 14.1961 6.5
-12.30099 0.42049211 14.155976 5.5
-4.0711355 0.54891825 14.137785 7
-3.1925611 0.60579509 14.198518 7
-66.828049 0.78400016 14.191131 7
-64.642853 0.87577283 14.158342 7
-66.803024 0.91692185 14.125229 7
-37.793945 -0.52282524 14.255982 7
-4.0550399 -0.26473221 14.22832 6
-3.749186 -0.25878838 14.201776 6
0.51196384 -0.2001804 14.29308 4.1295338
0.64545393 -0.2072366 14.226844 4.0500002
-4.1569424 -0.17159508 14.256456 6.583333
-4.0890632 -0.1198898 14.227829 6.75
-3.8569851 -0.18139116 14.241884 6.375
0.650392 -0.11445342 14.207543 5.5
16.307638 -0.19516957 14.233064 7
0.32690752 -0.084009051 14.281762 6
-33.622314 0.15277827 14.247656 5
-33.461243 0.16645443 14.248613 4.7074676
-33.369923 0.18423891 14.241255 4.75
-33.442974 0.21402931 14.271779 5.3333335
-17.738285 0.29461539 14.241798 3.5
-17.17919 0.20227334 14.237413 0.5
-16.702085 0.2605806 14.245193 2.3333333
-16.311871 0.28460214 14.251975 3
-16.289055 0.25288978 14.285431 2
-11.656536 0.27916461 14.25966 1
-33.19648 0.30534524 14.21498 6
-17.251255 0.30602616 14.272527 3.7692308
-16.199657 0.32741651 14.209967 3.75
-15.789362 0.38612619 14.230168 6
-15.245058 0.39407012 14.203227 5.5
-14.873125 0.30572116 14.210812 3.5
-14.221861 0.3778742 14.286652 4.5576925
-14.181674 0.33017433 14.280336 3
-13.709949 0.34397027 14.276383 4.3048782
-13.694244 0.35240319 14.215676 4.5
-13.252525 0.37671417 14.20375 4.6219511
-12.802437 0.34455755 14.204247 3.7706766
-11.684216 0.38505334 14.236667 3.7666667
-11.661287 0.42250258 14.292644 4.8000002
-64.396042 0.53049123 14.271557 7
-64.622932 0.62575614 14.215231 7
-64.431419 0.64949334 14.232057 7
-66.814163 0.7832498 14.29274 7
-62.257877 0.79774016 14.272062 7
-64.612534 0.87690961 14.254903 7
-64.59539 0.87343782 14.228178 7
-66.771553 0.91121554 14.265961 7
-38.318905 -0.50707865 14.331512 7
-40.910004 -0.36247721 14.366825 7
-40.58112 -0.37124518 14.309383 7
-3.9289176 -0.26069215 14.302183 6
-8.7577448 -0.15542351 14.385648 7
-8.6134615 -0.14909665 14.381119 7
-4.2612734 -0.11313219 14.346882 7
0.39715517 -0.11305477 14.308622 5.5
-4.3252306 -0.073541075 14.341026 7
-4.2701545 -0.07940565 14.352355 7
-33.605061 0.1519829 14.311468 4
-16.83349 0.19328108 14.387752 1
-17.747677 0.24837336 14.31909 2.1111112
-12.228954 0.27334401 14.327746 1.5
-18.285074 0.3099542 14.306948 4.3333335
-17.248339 0.30688626 14.329226 3.6666667
-16.756632 0.36806473 14.36704 5.5
-16.340923 0.38166016 14.345902 5.5999999
-15.267757 0.33781654 14.371729 3.8941176
-14.746948 0.35593802 14.362928 4.2653847
-12.257725 0.36848387 14.339813 4.1136365
-13.225622 0.42837909 14.308797 6
-12.317913 0.47497758 14.383755 7
-12.243253 0.40147874 14.356802 5
-11.733725 0.40003049 14.34679 4.5
-63.844654 0.5734489 14.301405 7
-11.736572 0.50316274 14.344943 7
-66.826035 0.66322142 14.394786 7
-64.610054 0.65568024 14.353402 7
-62.485619 0.7990486 14.372746 7
-62.279934 0.79764473 14.335569 7
-66.804657 0.88133663 14.368182 7
-64.615005 0.88546056 14.352079 7
-64.583984 0.85749102 14.395676 7
-66.763992 0.90733999 14.397135 7
-9.0481491 -0.15113515 14.479826 7
-8.8455229 -0.15253612 14.463511 7
-8.6301546 -0.14886399 14.412702 7
-8.4969978 -0.14119159 14.464881 7
-19.332987 0.17233348 14.472326 1
-18.24543 0.19209683 14.417494 0.66666669
-19.364679 0.28091928 14.442055 4
-18.82543 0.27878737 14.422415 3.5
-18.284777 0.2905668 14.40435 3.6559141
-16.362667 0.2156437 14.404428 1.3333334
-15.814404 0.29789698 14.452303 3.5
-15.793876 0.21013704 14.427917 1
-17.76815 0.31918299 14.42929 4
-16.855404 0.36064798 14.441118 5.5
-13.733133 0.30806559 14.477889 3.45
-8.8095512 0.30380461 14.499386 7
-8.7014675 0.30234936 14.454132 4.6666665
-8.6940689 0.3326166 14.448963 5.6666665
-4.2408576 0.39422345 14.408466 7
-17.017574 0.41023207 14.496661 7
-15.284559 0.40945798 14.415545 6
-12.931626 0.45963842 14.42605 7
-12.805161 0.4651646 14.437457 7
-12.764208 0.46687466 14.463854 7
-8.8743906 0.4675746 14.418677 6
-8.7363052 0.44936019 14.428902 6.5
-4.1553631 0.42449683 14.410393 6.25
-64.62999 0.53719723 14.463953 7
-66.796951 0.63671046 14.453255 7
-64.919525 0.62569457 14.474176 7
-64.615547 0.6631152 14.476976 7
-66.751137 0.88876301 14.419203 7
-64.84436 0.83297729 14.462133 7
-64.725693 0.86065125 14.498103 7
-64.680153 0.84776103 14.492969 7
-64.580757 0.87485611 14.477337 7
-63.45512 0.8055492 14.480581 7
-66.762383 0.916004 14.456774 7
-9.0071211 -0.20039958 14.566921 7
-8.8965969 -0.21580902 14.579996 7
-8.9569635 -0.1717979 14.545991 7
-8.6308775 -0.16543604 14.546525 7
-8.5540838 -0.16133891 14.595789 7
-8.3582411 -0.17984107 14.50106 7
3.7938988 -0.15756281 14.576 6
-19.303831 0.17346278 14.588146 0.5
-18.805815 0.19725026 14.508878 1
-19.865021 0.24108782 14.552322 3
-19.347408 0.25697827 14.573409 3.0772531
-18.816315 0.26991254 14.546949 2.99
-18.28549 0.2993249 14.506125 3.75
-16.277002 0.22730134 14.541192 1
-14.254604 0.25141796 14.571381 1.3333334
-8.5633774 0.27219966 14.57939 3.5
-19.748137 0.36052626 14.528811 6
-17.529013 0.32858369 14.593792 5
-17.403215 0.35126257 14.520296 5.25
-16.846498 0.31079912 14.582038 4.0829878
-16.302076 0.32958961 14.553753 3.9818182
-15.819016 0.31904823 14.504557 4.090476
-14.737309 0.32548571 14.563055 3.415
-14.235798 0.31605908 14.535297 2.912879
-13.85288 0.30985004 14.552314 4
-8.9267206 0.30300769 14.579802 4
-8.8454275 0.33726138 14.556139 5.4676189
-8.7276955 0.33533469 14.56382 4.5519481
-8.682847 0.34180009 14.53357 4.090909
-8.3778267 0.35336295 14.560284 4.5
-8.7307425 0.41932568 14.554375 5.439394
-8.6361818 0.41016763 14.594229 5.25
-64.948753 0.65347034 14.551788 7
-64.950661 0.77676749 14.555914 7
-66.755821 0.85765654 14.55582 7
-64.930565 0.86087322 14.560548 7
-64.863266 0.88160467 14.536788 7
-64.782524 0.8762424 14.508287 7
-64.622101 0.87319607 14.526852 7
-64.588669 0.89214063 14.500673 7
-66.78756 0.90793854 14.554943 7
-9.2309484 -0.43106559 14.698495 7
-8.7679253 -0.3553749 14.661011 7
-8.9899549 -0.21062249 14.618601 7
-8.6107416 -0.2063349 14.625039 7
-8.5240297 -0.21149875 14.689613 7
3.7522039 -0.22913255 14.650852 5.5
-9.1935759 -0.19592427 14.677075 7
-8.574605 -0.19504146 14.609289 7
-8.4369755 -0.14420719 14.636487 7
-8.2990007 -0.16975397 14.606508 7
-9.2061529 -0.097514212 14.687989 7
-8.6216164 -0.0043775737 14.666249 7
-8.3195248 0.054276675 14.652689 7
-33.62682 0.14158416 14.672704 5
-20.95207 0.19641009 14.683496 2
-19.822197 0.1656836 14.655616 0.5
-17.923733 0.19557646 14.613041 1.2
-16.840229 0.1989421 14.608606 1
-20.933945 0.29426786 14.662633 4.5
-20.345673 0.26576659 14.618103 3.5
-19.854921 0.25932339 14.663172 3.2469881
-17.386576 0.21614373 14.670588 1.5
-15.308386 0.23883599 14.682852 1.5
-14.792293 0.24137008 14.620135 1.5
-8.8498812 0.26741564 14.683273 4.8333335
-8.6374092 0.28208011 14.638273 5.375
-8.554575 0.29075414 14.685709 5.0131578
-18.4247 0.33200079 14.647043 5
-18.324944 0.31783438 14.608619 4.3333335
-17.919132 0.34032482 14.619371 5
-17.868023 0.31828037 14.690525 4.1716418
-16.876011 0.30529714 14.648051 4
-15.827073 0.31433055 14.694339 4.0215826
-15.290709 0.36229017 14.648037 4.7314816
-9.033432 0.35445157 14.671849 5.6666665
-8.971509 0.32856849 14.644229 5.0883732
-8.8880453 0.39370441 14.659811 5
-8.7403212 0.32448235 14.653598 4.2987304
-8.61057 0.33295465 14.659239 5.6078429
-8.5485697 0.31649935 14.658966 4.8024693
-9.0022631 0.42348278 14.670507 5
-8.9638882 0.41869378 14.670506 5.5
-8.8762636 0.42494011 14.63175 6
-8.7888899 0.44295144 14.624261 6
-8.6326494 0.45647773 14.677791 6
-8.550581 0.47798467 14.627701 6
-8.4935579 0.47387698 14.673726 6
-64.496811 0.53059596 14.618025 7
-66.751709 0.66003793 14.638962 7
-66.771408 0.78028166 14.68534 7
-66.695259 0.89152825 14.661803 7
-65.00338 0.87521881 14.635616 7
-64.942924 0.88899106 14.616719 7
-66.771736 0.90725905 14.662273 7
-33.568031 -0.48164508 14.702632 7
-8.6375999 -0.23630731 14.702776 7
-8.3843393 -0.20478721 14.741422 7
0.64630604 -0.21548586 14.765469 4
-8.3445807 -0.14154014 14.748064 7
0.64369881 -0.13354558 14.720804 5.375
16.06189 -0.18543428 14.789104 7
-8.3917141 0.026805848 14.725918 7
-33.775631 0.15586147 14.782625 4
-33.653976 0.14269689 14.738894 5
-20.930834 0.14811805 14.748833 0.5
-20.336863 0.18318872 14.717034 1
-18.934767 0.18404871 14.745246 1
-20.943373 0.24792704 14.797508 3.043668
-20.366539 0.26724255 14.734521 3.4246576
-19.838486 0.23993199 14.729636 2.5
-19.403975 0.2540684 14.732894 3
-18.031542 0.29051569 14.724469 4
-17.84503 0.2112509 14.798409 1
-15.815941 0.21432479 14.738113 1.3333334
-9.0660133 0.2712836 14.744214 3.2663043
-8.4612379 0.26869237 14.737129 5.6666665
-19.355295 0.33044952 14.735432 5
-18.868195 0.32109103 14.707633 4.5
-17.429089 0.34133255 14.710199 5
-17.399035 0.30782944 14.715113 4.0079679
-16.313831 0.33043978 14.766723 4.0816326
-15.8827 0.30259153 14.758084 4
-9.1342278 0.342715 14.774223 5.2025862
-9.0464535 0.33307758 14.741929 4.615325
-8.9643345 0.30766338 14.707071 5.4893618
-8.8380756 0.34180695 14.749825 5
-8.7390156 0.35158667 14.709557 4.5
-8.4418459 0.32127571 14.745898 5.2367425
-8.363718 0.38742316 14.776762 6
-9.0880661 0.46295893 14.774439 6
-8.984705 0.43737644 14.74917 5.8000002
-8.8696671 0.46301228 14.757343 6
-8.3481693 0.4471069 14.769347 6
-63.860554 0.57511616 14.733782 7
-62.329086 0.78614771 14.747774 7
-66.729042 0.91388053 14.708346 7
-33.691704 -0.38861993 14.895225 7
-8.252389 -0.23121874 14.87727 7
0.30319691 -0.28853893 14.82992 3
0.49699956 -0.20937605 14.835377 4.0627451
-8.3201075 -0.14113106 14.822626 7
0.3180095 -0.15778238 14.818984 5
-33.751915 0.13856146 14.819178 5
-22.063028 0.14767393 14.859527 1.5
-19.480213 0.16810545 14.893662 1
-22.060556 0.25391185 14.851526 4
-21.519066 0.24754477 14.835793 3.75
-20.400244 0.27690887 14.876614 3.6666667
-19.430099 0.29753399 14.848767 4.2180452
-17.871742 0.29608038 14.834046 3.5
-16.847626 0.27986503 14.852015 3.2690058
-16.27153 0.22316036 14.806398 1
-9.1565723 0.28912327 14.828378 5.7012033
-19.87475 0.36002907 14.840639 6
-19.489063 0.30346841 14.880612 4.5714288
-18.943436 0.32128087 14.811525 4.692708
-18.384474 0.32601017 14.802267 4.6603775
-16.29405 0.31133297 14.807795 3.5
-9.2571173 0.32064104 14.831835 4.5
-9.1758137 0.36286235 14.865171 5.8263736
-8.3429012 0.3381443 14.808902 5
-8.2710848 0.33760357 14.866206 5.56359
-57.981625 0.40827116 14.855632 7
-9.169343 0.43738073 14.837096 6
-8.9707174 0.4757176 14.810877 6
-8.8993645 0.47171912 14.809448 6
-8.351572 0.43555304 14.845175 6
-64.483795 0.53131425 14.808859 7
-66.739326 0.87800026 14.892976 7
-66.70929 0.91046381 14.84478 7
-66.676552 0.90496719 14.863076 7
-8.3280125 -0.23538521 14.996496 7
-8.2095737 -0.23197289 14.983073 7
-8.2964058 -0.15405011 14.976618 7
-22.015057 0.14680386 14.966433 1
-21.96858 0.12160569 14.994256 0
-21.449234 0.15185577 14.934649 0.75
-20.956696 0.1435746 14.995481 0
-17.403591 0.1663233 14.998438 0.5
-16.847647 0.19065252 14.904873 1
-38.669022 0.22717991 14.996304 4.1666665
-23.117277 0.29186499 14.987072 4.6666665
-22.02998 0.23992459 14.982575 3.3727272
-21.484056 0.24421655 14.944561 3.3631284
-19.930668 0.29598653 14.944738 4.2828946
-17.385693 0.28199965 14.919238 3.3020134
-9.3678246 0.27653888 14.999502 5.5
-9.2557154 0.28583384 14.936325 4.4857941
-58.715759 0.39675719 14.96031 7
-22.03322 0.33945423 14.90391 6
-20.952785 0.3596999 14.944221 6
-20.521801 0.33362198 14.959024 5.5
-19.972691 0.3175028 14.928959 5
-18.358849 0.30698115 14.943456 4
-17.386131 0.30749202 14.954667 4
-16.892454 0.30823559 14.918853 4.25
-16.298645 0.39873934 14.908936 6
-9.2376699 0.32312295 14.971333 5.1836085
-8.2289734 0.39017189 14.91201 6
-9.2143822 0.42847982 14.91986 5.5
-9.1769667 0.45706892 14.941452 7
-8.1894274 0.42937836 14.999825 6
-63.890087 0.57580149 14.984028 7
-62.380802 0.7668637 14.981348 7
-66.722626 0.82299423 14.954065 7
-66.701233 0.91570127 14.984076 7
-66.685272 0.9067564 14.959164 7
-44.374619 -0.47062492 15.099102 7
-9.2809324 -0.34798563 15.051762 7
-8.3167515 -0.21101615 15.007771 7
-8.2813416 -0.16245744 15.044483 7
-38.539776 0.18849476 15.06416 4.9166665
-38.465206 0.19922349 15.016863 4
-21.043903 0.18048048 15.017186 1.5
-20.008152 0.18126146 15.067263 1.5
-19.399876 0.18926486 15.01697 1
-38.539104 0.25974172 15.041931 4.8333335
-38.470188 0.22529814 15.088942 4
-22.601334 0.28904688 15.046926 4.5999999
-21.027237 0.28471085 15.056007 4.1084967
-20.677076 0.25602341 15.088492 4
-20.484137 0.28313866 15.090107 4.0355554
-20.112114 0.26294771 15.055462 4
-20.006477 0.25188473 15.096187 3.3333333
-19.446526 0.241111 15.012567 2.6666667
-17.855019 0.21424979 15.041695 1.3333334
-17.474951 0.25450984 15.03521 3.0833333
-9.1987476 0.29531249 15.00387 6
-21.16276 0.3893252 15.093274 7
-18.895723 0.30491441 15.010879 4
-17.889765 0.3170712 15.050631 4.2471428
-16.874346 0.37602949 15.01249 6
-9.3332815 0.35099027 15.050293 5.4697914
-9.2470036 0.33099666 15.064266 4.9066949
-9.3241005 0.41157901 15.066956 5.5
-9.2367067 0.44081101 15.02224 5.7916665
-9.1732311 0.45692068 15.005413 7
-66.665848 0.66180956 15.057984 7
-62.401886 0.76659846 15.040216 7
-66.721039 0.81458962 15.035038 7
-66.691635 0.91323638 15.052166 7
-45.332581 -0.48560369 15.189337 7
-8.2747507 -0.21818292 15.133705 7
17.57093 -0.20778401 15.131025 7
-8.3053131 -0.17819506 15.102461 7
-38.528973 0.19058511 15.118851 4.5
-23.660326 0.18366238 15.195514 2
-23.050505 0.15569547 15.150648 0.75
-22.56102 0.15635148 15.111174 1
-21.571482 0.15856135 15.161995 1.3333334
-21.035805 0.18670556 15.193744 1.5
-20.507404 0.18396784 15.130775 1.5
-38.507355 0.20135033 15.112406 4.5999999
-38.430298 0.25379276 15.130764 5.375
-38.365208 0.26980171 15.164808 5.1934524
-38.248177 0.29184008 15.196094 5
-23.085012 0.2600677 15.144621 3.6102564
-22.584217 0.24575453 15.106378 3.3793104
-21.516621 0.28322518 15.130834 4.4000001
-21.156593 0.28445566 15.114367 4.5
-20.523581 0.29656988 15.152102 4.5
-23.096128 0.33633724 15.116946 5.6666665
-22.102194 0.30038926 15.193464 5
-18.905174 0.32644832 15.161392 4.7266665
-18.357716 0.31672019 15.111107 4.3454542
-9.4249363 0.35165507 15.163803 6
-9.3266716 0.31083465 15.104092 4
-9.2563238 0.38143042 15.144491 4.909091
-17.474018 0.41419643 15.120036 7
-9.4910402 0.4360902 15.133926 6
-9.1345596 0.4374384 15.140713 6.3333335
-8.1677103 0.42187706 15.159846 6
-63.908779 0.57636052 15.192895 7
-66.697815 0.64948457 15.15027 7
-66.712959 0.77638799 15.170835 7
-66.662857 0.88977468 15.137096 7
-66.714188 0.9043799 15.115211 7
-45.917221 -0.4582265 15.29001 7
-45.817802 -0.45932585 15.276896 7
-45.458385 -0.43189102 15.247496 7
-44.834152 -0.46379739 15.262762 7
-9.3371553 -0.27532101 15.274714 7
-7.9222012 -0.14201775 15.231781 7
-7.8743248 -0.12334784 15.262714 7
0.53634012 -0.086685091 15.244361 6
-22.105646 0.14087513 15.211541 1
-21.651434 0.1275132 15.265148 1
-21.595104 0.14032117 15.285952 1
-19.372738 0.19134715 15.208046 1
-18.929285 0.17829794 15.282987 1
-38.348724 0.26326883 15.225582 5.5
-38.291069 0.25365549 15.25733 5
-24.214539 0.28632465 15.268597 4.5
-23.657684 0.27340931 15.221148 4.1319447
-23.102329 0.24855021 15.28548 3.2391305
-22.586149 0.231021 15.25785 2.8756478
-22.058458 0.22423749 15.207297 2.8757763
-21.677887 0.21954063 15.263042 3.2857144
-21.533922 0.25278729 15.211295 3.5898304
-21.057695 0.26018667 15.208605 3.5
-19.400494 0.26312241 15.209135 3.1196582
-18.956211 0.21177296 15.291457 2
-18.897474 0.29247025 15.20034 3.75
-18.362684 0.20702247 15.206487 1.5
-9.2796717 0.29327124 15.266647 5.5863247
-24.82127 0.38642058 15.292644 7
-19.403244 0.30116773 15.24796 4.1999998
-18.340458 0.34899294 15.240061 5.3333335
-9.2639866 0.3535701 15.277908 4.6737452
-9.331049 0.43421051 15.214381 6
-9.2942791 0.43447602 15.21855 6
-9.1347809 0.42621699 15.273577 6.5
-62.513611 0.66933793 15.294315 7
-46.206028 -0.45799887 15.320045 7
-45.970783 -0.42798316 15.316307 7
-7.8813601 -0.25228798 15.363214 7
-7.7926683 -0.27803674 15.398089 7
-8.325675 -0.15967503 15.395048 7
-8.1068192 -0.15109733 15.319519 7
-7.8321028 -0.1663 15.319757 7
-7.7274833 -0.15087128 15.309912 7
0.24580681 -0.18105802 15.366334 4.4285712
0.42135406 -0.19342059 15.363152 4.1147542
-0.68905801 -0.091253795 15.392173 6.5
0.21979308 -0.084073156 15.352953 6
-24.178738 0.18803535 15.301432 2
-23.607285 0.14107138 15.308968 0.5
-23.094345 0.16499069 15.331022 1
-22.61212 0.15437156 15.337398 1
-19.898699 0.17074713 15.306038 0.66666669
-24.741888 0.28741291 15.377765 4.5
-24.166901 0.25671005 15.336058 3.5833333
-23.149103 0.27228802 15.342597 4
-22.641298 0.28749496 15.32813 4.5
-22.186857 0.29388455 15.300697 5
-21.563662 0.24674954 15.338568 3.5
-20.484003 0.2547878 15.371883 3.2857144
-19.927147 0.26680768 15.329432 3.444139
-9.3604736 0.29879987 15.314936 4
-9.2549639 0.29532433 15.382408 6
-19.369425 0.32936573 15.367392 5
-9.3869343 0.34890521 15.391987 4.625
-9.2497416 0.32370293 15.326343 5.6785717
-7.5697179 0.41692659 15.399622 6
-62.45705 0.67152232 15.329672 7
2.8199701 0.66288435 15.311021 7
-63.731689 0.79067516 15.344004 7
-66.639572 0.88285577 15.396752 7
-66.636902 0.90859145 15.324695 7
-47.097233 -0.44647545 15.437342 7
-8.6207113 -0.27715749 15.418229 7
-8.2059097 -0.22277522 15.416534 7
-8.1463013 -0.23446758 15.489708 7
-7.9861121 -0.23567289 15.427895 7
-7.6676855 -0.27831903 15.491044 7
-0.63362986 -0.24116331 15.431826 5
-0.41694814 -0.22109485 15.450041 5.1086955
-7.6034961 -0.17896235 15.41673 7
-7.4482827 -0.10587925 15.434123 7
-0.57887584 -0.15968952 15.438519 5.7741938
-8.0368805 -0.043018281 15.447733 7
-7.3591475 0.070945948 15.466335 7
-24.700855 0.15078822 15.417015 1
-24.130116 0.14498842 15.424651 0.5
-22.817448 0.19914091 15.444761 3
-22.070112 0.17145021 15.412424 1.5
-21.009155 0.16700089 15.485139 1
-20.470432 0.16689083 15.425403 1
-39.875042 0.23518021 15.468839 3.9880953
-39.683338 0.27182049 15.454091 4.3333335
-39.567413 0.26546481 15.475686 4.3333335
-24.716497 0.25574932 15.405236 3.6428571
-24.152941 0.23672447 15.498516 2.8971062
-23.63891 0.25115085 15.426228 3.3490195
-22.730488 0.27430493 15.439082 4.4411764
-22.098171 0.26500583 15.452684 4
-21.024282 0.26267269 15.433064 3.4682541
-20.601467 0.26313967 15.473052 4
-20.550678 0.26379904 15.450422 3.8333335
-19.973028 0.28704175 15.450826 4.3333335
-7.8007221 0.29530859 15.439388 6
-7.5810003 0.29560938 15.489151 5.5
-25.851027 0.38662603 15.464018 6.75
-25.332935 0.39717865 15.443882 7
-25.279686 0.33718324 15.473909 5.5
-24.160425 0.35318714 15.403094 6
-23.641106 0.32361329 15.494003 5.25
-23.243999 0.31011474 15.433024 5.166667
-20.047171 0.30786526 15.451692 5
-9.3853664 0.37900603 15.450445 5.6999998
-9.2697659 0.34237972 15.440353 5.0982141
-7.8554649 0.32401931 15.457824 5.7894735
-7.6526589 0.33014515 15.46741 5.8055558
-7.5609746 0.31703424 15.48398 5
-9.3839359 0.42147809 15.475504 6
-9.2451839 0.42456579 15.495119 6
-7.6356297 0.43670434 15.453394 5.96
-7.5396414 0.41580182 15.422788 6
-66.645889 0.63391542 15.485325 7
-62.482193 0.6813916 15.446697 7
-63.751743 0.79014444 15.447358 7
-66.655304 0.81836522 15.490842 7
-66.629852 0.90954238 15.464639 7
-66.597092 0.90332168 15.452301 7
-48.20536 -0.3970238 15.596781 7
-39.964531 -0.32592943 15.505591 7
-39.767593 -0.31060991 15.568998 7
-38.41415 -0.33423322 15.503474 7
-40.734211 -0.27600396 15.511751 7
-40.699455 -0.27061215 15.587469 7
-38.454498 -0.25983855 15.597346 7
-8.189105 -0.2393422 15.564707 7
-7.6284595 -0.29833749 15.541962 7
-7.5427451 -0.23174718 15.526484 7
-7.4802132 -0.25520796 15.521086 7
-7.3543506 -0.11889728 15.54879 7
-7.3689337 -0.091059774 15.584246 7
-7.4532676 0.010369718 15.580987 7
-7.3037634 0.032434523 15.514427 7
-40.707993 0.19548467 15.571016 5.5714288
-40.623596 0.16635054 15.572792 7
-40.574978 0.13270217 15.531414 7
-39.920071 0.17939442 15.581845 5
-39.870136 0.1809473 15.532882 5
-24.65799 0.14760125 15.535954 0.5
-23.67272 0.15215513 15.531134 1
-22.630098 0.19124258 15.522304 2
-21.510233 0.15765175 15.54577 1
-21.091358 0.18736193 15.54057 2
-43.244732 0.28890294 15.589704 5
-40.826927 0.28119653 15.590261 4.5
-40.729633 0.25711259 15.589509 4.507576
-40.144299 0.25538027 15.569386 4
-40.04184 0.25449064 15.549655 4.5
-39.935215 0.22878289 15.535661 4.4499998
-39.819534 0.2494761 15.525417 4.5
-39.734047 0.24669331 15.535162 4.9000001
-39.657146 0.26853013 15.529912 5.1538463
-39.558243 0.27748692 15.567406 5.3333335
-26.73844 0.29071993 15.525341 4.5
-25.740063 0.26424521 15.594882 3.5
-25.221504 0.29776484 15.590652 4.3333335
-24.683313 0.24177094 15.582597 3.025641
-23.74906 0.28348428 15.580381 4.5
-22.657253 0.2262782 15.520439 3
-21.535389 0.25920466 15.532528 3.767647
-21.105173 0.2407957 15.531849 3.3214285
-9.1765585 0.29164904 15.57407 6
-7.5472469 0.29328033 15.528218 6
-40.966175 0.35553569 15.591696 6
-40.751472 0.31634504 15.593025 5.3671679
-40.671955 0.35145268 15.573892 5.5349264
-40.566811 0.39896637 15.553601 6
-40.496712 0.39573318 15.520363 6
-39.695698 0.30104089 15.535593 6
-25.774166 0.31179237 15.533342 4.833333
-24.708839 0.35235712 15.532536 6
-23.744797 0.31575429 15.573967 5.2631578
-20.980652 0.35992265 15.552665 6
-20.482666 0.35476857 15.533796 6
-9.3400736 0.36179429 15.539137 5
-9.262845 0.34134614 15.544509 4.75
-9.1603565 0.3528038 15.542145 5.8499999
-8.0327225 0.34084183 15.543534 6
-7.9118466 0.37744546 15.551989 6.4545455
-7.8334432 0.36759561 15.500881 5.6799998
-7.6370502 0.38300401 15.5289 6.4615383
-7.5208583 0.35515121 15.554591 5.9285712
-7.3252382 0.35156643 15.572632 6
-40.719559 0.40041992 15.565276 6
-40.6437 0.40592811 15.552122 6
-40.552322 0.40580493 15.551229 6
-40.488808 0.40296921 15.54353 7
-9.3377523 0.41598013 15.570267 5.833333
-9.1292896 0.43926734 15.539972 5.6666665
-7.6116776 0.47418523 15.515553 6.5
-7.4408436 0.44199315 15.552966 6.25
-7.3081903 0.40856019 15.558981 6
-65.4758 0.52225232 15.518768 7
-66.632133 0.6538595 15.587997 7
-66.661507 0.80299366 15.518575 7
-66.582275 0.89916301 15.552675 7
-66.618431 0.90586776 15.562324 7
-66.570892 0.90289313 15.553899 7
-48.45713 -0.42170689 15.664762 7
-41.782253 -0.27014852 15.688169 7
-7.5560946 -0.25193378 15.602543 7
-7.4489932 -0.2891224 15.676165 7
-7.3493886 -0.12259992 15.654089 7
3.8137197 -0.18756807 15.660315 6
-7.5166168 -0.017191589 15.623148 7
-7.3514662 -0.088839352 15.655128 7
-40.829132 0.19905818 15.609787 5
-40.744755 0.18279332 15.653128 7
-27.722206 0.18309605 15.69734 1
-27.202179 0.18496269 15.6898 1
-26.73152 0.1774908 15.60795 1.5
-26.301933 0.1929802 15.612288 1.5
-26.249046 0.14766636 15.698165 0
-25.723648 0.16970256 15.660239 1
-25.180941 0.17743555 15.634895 1
-24.173389 0.15918139 15.616614 1
-23.131311 0.17612951 15.671748 1.5
-22.053003 0.14675008 15.671652 1
-21.589134 0.15351947 15.663406 1.5
-14.972511 0.19229487 15.692537 5
-40.91 0.25854105 15.659805 4.181818
-40.843075 0.24601878 15.643821 4.8585658
-40.779587 0.27607524 15.662601 4.5416665
-40.179592 0.24345668 15.647278 4.3333335
-40.088127 0.27460146 15.607621 5
-27.753716 0.29245678 15.664845 4
-27.221022 0.26221249 15.693188 3.0526316
-26.737949 0.28640312 15.602766 4.2913909
-26.291201 0.22549345 15.616707 2.25
-25.199146 0.25864401 15.694487 3.1660779
-24.714167 0.27566686 15.681781 4
-24.196619 0.27392063 15.609239 4
-23.153214 0.25203782 15.689326 3.5
-22.078764 0.25567102 15.643312 3.770335
-21.600519 0.22690934 15.670906 3.318182
-43.247734 0.37603828 15.616812 6
-41.801777 0.32711232 15.626659 5
-40.929535 0.31867841 15.609341 5
-40.727867 0.36788386 15.61405 6
-40.660908 0.36703241 15.628525 6
-29.895605 0.30278176 15.689599 4.6666665
-29.439739 0.33524758 15.645333 5.25
-28.88303 0.34025404 15.629642 5.5
-27.248411 0.31195119 15.630497 4.5
-26.288326 0.31005755 15.634096 4.25
-24.27076 0.32180822 15.685353 5.3846154
-22.116678 0.34278503 15.665831 6.0483871
-9.1332254 0.37917724 15.604089 6
-9.0763597 0.35757303 15.63419 5.875
-8.9785061 0.35238978 15.686343 6
-7.3291817 0.31032348 15.636827 6.1666665
-7.277832 0.35880494 15.688723 5.583333
-43.222298 0.4199726 15.683105 6
-9.0548534 0.43887535 15.648542 6
-7.841578 0.48291481 15.611914 7
-41.882496 0.50058693 15.65563 7
-8.0143843 0.50797904 15.619905 7
-66.269623 0.6574769 15.615925 7
-62.862816 0.65407723 15.648888 7
-66.625267 0.90177804 15.649662 7
-66.580627 0.90307695 15.634968 7
-49.345104 -0.36383593 15.760315 7
-49.251652 -0.36895704 15.707802 7
-41.900059 -0.26735041 15.797665 7
-41.858627 -0.24897654 15.777271 7
-15.195563 -0.25151309 15.788453 7
-15.063295 -0.26154774 15.772739 7
-7.2767315 -0.27882114 15.743332 7
-14.98564 -0.15303165 15.745781 7
-7.3537211 -0.1024458 15.733464 7
-7.3130293 -0.071739018 15.762754 7
-41.971897 0.13711104 15.702242 7
-40.694984 0.19864315 15.739489 7
-24.704613 0.15932608 15.739653 1
-22.63061 0.16659135 15.737184 1.5752687
-15.357252 0.18175191 15.779192 0.70238096
-15.280666 0.18791077 15.774752 1
-15.029202 0.19105396 15.732529 0.42857143
-43.243645 0.27822468 15.754926 6
-42.036266 0.26762363 15.772016 4.5555553
-41.969101 0.25327259 15.772356 4.3615384
-41.030865 0.28043771 15.768608 4.6666665
-40.951172 0.27375397 15.716892 5.333333
-40.628975 0.29172844 15.783775 7
-30.270317 0.21563976 15.795033 2
-28.800783 0.29125905 15.770167 4
-28.253574 0.25968781 15.76403 3
-27.7355 0.25531322 15.723523 2.8833334
-26.741642 0.254599 15.767897 3.3225806
-25.740524 0.24539074 15.743364 2.9312501
-22.671185 0.28178173 15.704511 4.4844723
-15.636343 0.24761179 15.762693 5.6999998
-15.545271 0.28859651 15.745372 7
-15.423092 0.22831246 15.752612 6
-15.363721 0.27974963 15.772853 5.5
-15.221837 0.24684007 15.775304 5.5111108
-15.17065 0.25376672 15.733829 6
-15.056495 0.20390221 15.727397 5.3333335
-7.267827 0.29551816 15.723531 5.5999999
-43.231956 0.33788967 15.751051 5.8928571
-42.103146 0.32106549 15.74431 5
-41.924652 0.30819118 15.760015 5.3571429
-41.871056 0.3403354 15.749385 5.0952382
-41.787354 0.35269687 15.732336 5.5
-41.109829 0.35444754 15.787783 5.0999999
-41.02747 0.32146743 15.787521 4.9814816
-40.655991 0.3766827 15.703096 7
-30.230097 0.3343063 15.779626 5
-29.364477 0.31149352 15.758937 4.5
-24.801683 0.32488328 15.783896 5.4444447
-24.271858 0.3474977 15.701301 6
-23.177216 0.32837117 15.755733 5.5
-22.690296 0.30003411 15.755028 5
-15.855798 0.34317195 15.787675 7
-15.6506 0.31413776 15.777559 6
-15.304897 0.32365543 15.79951 6
-15.22582 0.36642611 15.760601 5.6666665
-15.129696 0.36687464 15.744835 6
-15.057808 0.36771759 15.735561 6
-14.932683 0.3753275 15.751915 6
-8.8614693 0.37859464 15.776451 6
-7.3406572 0.39241129 15.711074 6.3333335
-7.2960858 0.32811338 15.705227 5.5
-43.56963 0.42178851 15.719143 6
-41.91581 0.43317318 15.748079 6
-41.233387 0.48045632 15.797173 7
-41.109184 0.41978133 15.769686 6
-15.065135 0.401604 15.771516 6
-64.80751 0.57003433 15.765697 7
-62.905434 0.58703518 15.792227 7
-62.832809 0.55160338 15.795283 7
-8.0169067 0.50040966 15.707336 7
-66.625961 0.81641424 15.704659 7
-66.573959 0.89471149 15.721491 7
-66.601601 0.90730089 15.751623 7
-66.587151 0.90518707 15.783548 7
-49.472168 -0.41351452 15.833666 7
-48.734123 -0.37100267 15.838889 7
-43.217407 -0.24978933 15.828452 7
-41.92384 -0.24968036 15.837376 7
-41.843849 -0.2688382 15.868468 7
-41.785297 -0.23990637 15.817361 7
-38.588051 -0.26840338 15.856281 7
-14.810219 -0.21950735 15.83538 7
-7.2517505 -0.28205892 15.851849 7
0.53585702 -0.28604186 15.840027 2.5
-7.3364477 -0.17273228 15.840189 7
0.52991867 -0.10632016 15.826242 5.5
0.60308516 -0.01700902 15.821571 7
-38.875748 0.097568929 15.88637 7
-42.124958 0.19604462 15.801243 5.5999999
-30.264828 0.16405186 15.866017 0.5
-29.806168 0.16591084 15.879257 0.75
-29.346451 0.17308229 15.824981 1
-28.784512 0.18023932 15.821895 1
-28.230736 0.19370534 15.881716 1
-26.753597 0.15348503 15.817941 0.75
-25.751619 0.16713542 15.87193 1
-25.198462 0.16606864 15.811895 0.75
-23.575081 0.13273397 15.800518 0
-15.644684 0.18617654 15.820662 6
-15.542398 0.17484014 15.846269 3.5824623
-15.493561 0.17935503 15.822099 4.9615383
-15.333787 0.17671689 15.818539 5.000752
-15.259948 0.18147413 15.847434 3.3101966
-15.134398 0.1645778 15.854704 4.2083335
-15.067204 0.19655919 15.87873 1.9666667
-14.982935 0.18463118 15.872844 3.1666665
-14.876583 0.18979271 15.830585 1.5
-43.516296 0.29115391 15.864069 4.75
-43.389961 0.24955539 15.86465 4.96875
-43.287121 0.29307678 15.86261 4.5
-42.310604 0.26202273 15.886683 4.5
-42.246101 0.25043216 15.884165 4
-42.119728 0.27064556 15.821796 5.1111112
-42.076397 0.27036896 15.81469 4.7121215
-41.835072 0.28748518 15.802824 7
-41.794411 0.28537354 15.87703 7
-41.116505 0.25748283 15.8746 4
-41.051338 0.27918553 15.823391 5
-40.9958 0.29552686 15.810511 6
-29.843987 0.26572523 15.887676 3.3883495
-29.369488 0.26790744 15.853539 3.3350253
-28.79051 0.26745719 15.827456 3.2368422
-28.255787 0.28991562 15.802479 3.75
-27.740416 0.26816553 15.898212 3.0568562
-27.210192 0.25957447 15.859579 2.7843137
-26.262522 0.27245569 15.800107 3.1189711
-25.788147 0.26131094 15.875509 3.5
-25.20717 0.27049628 15.821672 3.5
-23.129498 0.22919215 15.834906 2.9670329
-22.650373 0.27444935 15.821021 4.3333335
-15.673996 0.28699493 15.822403 5.2857141
-15.533792 0.24055366 15.857172 4.5215988
-15.46379 0.25029975 15.842782 5.7020411
-15.363383 0.2335095 15.828188 3.6878452
-15.245102 0.24681257 15.841199 3.7533333
-15.159224 0.24842283 15.844927 4.4430199
-15.082968 0.23553894 15.868663 2.6486487
-14.935816 0.29161143 15.851652 4.3888888
-43.53706 0.36456433 15.867827 5.6813493
-43.465881 0.39913815 15.866341 5.6666665
-43.349201 0.33587989 15.863414 5.0846405
-43.26511 0.38341898 15.820002 5.7545452
-42.358109 0.32127172 15.882711 5.1875
-42.2827 0.30394387 15.871511 4.6666665
-42.022175 0.3149057 15.82081 6
-41.940918 0.33901349 15.801427 6
-41.01759 0.30278867 15.817384 5
-40.997761 0.32643396 15.816833 6
-28.26016 0.37450567 15.848511 6
-26.780493 0.32604754 15.832446 5.3333335
-24.278799 0.36092776 15.845766 6.333333
-23.657701 0.33124417 15.847211 5.5
-23.169333 0.3224228 15.847074 5.3797469
-15.919601 0.32416147 15.8276 7
-15.867076 0.36753559 15.84659 6.5
-15.529927 0.32402015 15.849957 5.4000001
-15.429916 0.32575136 15.857562 4.8963962
-15.364822 0.31925258 15.843114 5.3333335
-15.244537 0.33618158 15.86112 6
-15.139516 0.34824812 15.866314 5.4166665
-15.066925 0.33671409 15.804079 4.875
-43.534477 0.45712203 15.831726 6
-43.457932 0.45328578 15.858765 6.3333335
-43.370014 0.45603311 15.834015 6
-43.261497 0.42177054 15.889731 6
-43.191498 0.44571197 15.864165 6
-42.455601 0.43689379 15.873371 6.5
-41.315277 0.41733855 15.899021 7
-41.230518 0.46407932 15.819525 7
-41.172264 0.41800943 15.817874 6.3333335
-65.554108 0.5219636 15.887101 7
-65.359726 0.52402395 15.82784 7
-65.231018 0.56635123 15.81621 7
-62.924076 0.55074286 15.85688 7
-62.852753 0.65332729 15.892566 7
-66.61554 0.83577704 15.842549 7
-66.571487 0.89039952 15.837292 7
-49.529549 -0.4116596 15.99657 7
-38.572632 -0.39641535 15.913649 7
-43.183208 -0.22466093 15.973383 7
-14.999308 -0.25558963 15.91531 7
-7.2811179 -0.25342542 15.939857 7
0.39503604 -0.20013203 15.918006 3.8175895
-43.227142 -0.19661877 15.983024 7
-7.3560143 -0.15616232 15.907637 7
0.2478053 -0.012900017 15.922706 7
-43.941216 0.011791825 15.963284 7
-31.2367 0.19186646 15.951788 0.75
-30.696754 0.19359823 15.997391 0.5
-28.199799 0.16591838 15.90477 0
-27.238874 0.18870726 15.993042 1
-26.271221 0.1879082 15.933104 1
-24.74884 0.16287082 15.989361 1.5
-24.098175 0.1613149 15.908284 0.75
-23.120565 0.16219756 15.960781 1.5
-18.531435 0.17366803 15.9967 4
-18.174843 0.17132802 15.999585 5
-15.745332 0.19466208 15.949775 1.625
-15.59245 0.19404431 15.934577 5
-15.054111 0.16994222 15.95184 4.4048038
-14.820319 0.19197187 15.948503 3
-44.167896 0.29201531 15.956879 4
-43.315964 0.2909897 15.955293 5.8000002
-42.340118 0.25275874 15.924786 4.375
-41.127724 0.26949987 15.963655 4
-38.865963 0.23921835 15.965736 5
-38.713478 0.22439611 15.932853 5.75
-38.669697 0.22815712 15.971198 4.6666665
-31.220812 0.244131 15.984018 2
-30.716667 0.26563683 15.949678 2.7348485
-30.288006 0.26530951 15.900741 3.1255412
-29.392206 0.24123837 15.985679 2.6315789
-28.811924 0.25507215 15.967152 2.858757
-28.258009 0.27282578 15.973748 3.1501832
-26.304665 0.28153384 15.95352 3.5
-24.761671 0.28875172 15.968089 4.5384617
-24.129124 0.26007265 15.931033 3.5
-23.630852 0.25000733 15.912595 3.4008098
-23.125935 0.27910495 15.982754 4.3333335
-15.815034 0.22292656 15.977349 4.5
-15.755648 0.20705196 15.998398 4.6666665
-15.656414 0.24872291 15.955477 3.7610221
-15.538319 0.27147159 15.90163 5.6060605
-15.030231 0.29806438 15.920534 4.5
-14.962678 0.24007677 15.929138 3.3015873
-14.759627 0.2513248 15.950133 3
-44.123978 0.32719186 15.969643 5
-44.04776 0.33032954 15.964935 5.8499999
-43.985275 0.35609961 15.981808 5.5
-43.686722 0.3554123 15.909611 7
-43.548161 0.35180235 15.906381 6.3333335
-43.472549 0.36810061 15.928059 5.9583335
-43.336929 0.33999085 15.905255 5.9444447
-43.228756 0.38881451 15.930497 6
-43.169445 0.3640435 15.942388 6
-31.259348 0.30702722 15.918861 4
-27.764336 0.37336805 15.937353 6
-27.242355 0.3383677 15.930142 5
-26.866817 0.36924806 15.938127 6.5
-26.332283 0.31866807 15.956367 4.5
-25.836353 0.33749706 15.961988 5.5
-24.755823 0.3213546 15.960763 5.3333335
-24.66534 0.35487834 15.989216 6
-23.671402 0.35898244 15.975597 6.25
-23.154465 0.30597803 15.937802 5
-15.847897 0.34130669 15.939589 5.5
-15.730556 0.31918728 15.984948 4.583333
-15.630974 0.35734129 15.968441 5.5
-15.554663 0.36830693 15.909101 5.3333335
-15.386151 0.34485039 15.900043 4.6666665
-15.298015 0.3359946 15.909367 4.6666665
-15.062054 0.33138919 15.988153 5
-14.966818 0.3411828 15.957171 6
-14.854999 0.31242636 15.942224 4
-8.3459835 0.33201006 15.957777 6
-43.865215 0.43260774 15.987496 6
-43.784473 0.46074522 15.943178 6
-43.527927 0.43959087 15.905573 6
-43.472778 0.42260551 15.935616 6
-43.359745 0.42606989 15.920013 5.9000001
-43.256077 0.42142043 15.930305 6
-42.443081 0.41283903 15.914879 6
-41.129524 0.46701771 15.918065 7
-15.667875 0.40220174 15.976393 7
-66.427124 0.55586469 15.975963 7
-62.875118 0.65302968 15.942508 7
-66.592606 0.81405824 15.960464 7
-15.70004 -0.50326151 16.069927 7
-15.563189 -0.50843513 16.031116 7
-38.641396 -0.40046614 16.051292 7
-15.553782 -0.45307291 16.092211 7
-15.490644 -0.47981042 16.03664 7
-43.240585 -0.21403427 16.061819 7
-41.988316 -0.24183863 16.094528 7
-18.137213 -0.29802436 16.039288 7
-14.969151 -0.24302708 16.05167 7
-44.044109 -0.17544284 16.087202 7
-7.4427991 -0.1190398 16.097775 7
-7.3779159 -0.19025944 16.022211 7
3.8233266 -0.19963609 16.067776 6
-43.877148 -0.060167015 16.068731 7
-43.767307 -0.093323469 16.03693 7
-18.554417 0.082594275 16.027782 6
-18.441404 0.08585535 16.042557 5.8431373
-30.361584 0.17990044 16.095121 1
-29.389967 0.17565531 16.016197 1
-28.865988 0.17330572 16.057266 1
-28.313255 0.18247208 16.098377 1
-27.772203 0.18660849 16.014265 1
-25.2899 0.16765043 16.092222 1.5
-24.034605 0.13777447 16.041954 0
-23.601313 0.16854435 16.046373 1.5
-18.634134 0.17408746 16.060654 5.5
-18.550774 0.14329016 16.042892 4.2976189
-18.449518 0.1399051 16.069216 3.8846157
-18.343973 0.17076634 16.082767 3.7941177
-18.297039 0.17621881 16.061424 0.33333334
-18.151287 0.16309917 16.058119 0.5
-18.029459 0.18547618 16.09651 1.0476191
-17.936417 0.1767906 16.065348 1.5
-17.885384 0.18249393 16.09211 3.25
-15.805801 0.19795939 16.061728 2.0212767
-15.035441 0.1735121 16.020487 5.4863524
-14.877584 0.13778409 16.058781 4.5
-44.141815 0.29802656 16.001844 4
-44.063465 0.22565806 16.088154 7
-43.945835 0.29695112 16.017677 4.3333335
-38.938976 0.22724795 16.09181 2
-38.842171 0.26308149 16.053547 4.5714288
-38.751087 0.27257124 16.079369 4.5555553
-38.658703 0.23765917 16.046141 4
-31.76543 0.29962921 16.096762 3.1666667
-31.251318 0.28689283 16.010138 3.2653062
-30.362078 0.26815498 16.082293 3.2371135
-29.882496 0.25545648 16.029221 3.1272726
-29.427082 0.29313567 16.02228 4
-25.29183 0.26899517 16.060608 3.8636363
-24.091417 0.25570542 16.040247 3.3399434
-23.63369 0.29892683 16.031013 4.75
-18.618206 0.21338108 16.050745 7
-18.477581 0.24753553 16.056313 6
-18.279051 0.23215413 16.054485 5.5
-18.152231 0.22887513 16.077114 5.52
-18.059185 0.23162448 16.084639 4.8571429
-17.97736 0.26354557 16.078457 2.875
-17.866501 0.26058286 16.048462 4.5
-15.845368 0.24649388 16.054487 3.5196078
-15.765312 0.22078614 16.059511 3.7091286
-15.697655 0.26928237 16.056814 6.5
-15.556303 0.24959691 16.034216 6.4000001
-14.960659 0.23611891 16.043653 5.246212
-14.882783 0.23740691 16.001984 3.0625
-14.775264 0.27141476 16.018278 4
-44.192043 0.30232194 16.024822 4
-44.049667 0.33944297 16.053419 5.7333336
-43.969627 0.33603278 16.046738 5.5
-43.851482 0.37649456 16.036966 5.6666665
-43.734558 0.36080945 16.015593 5.8000002
-43.164223 0.3471773 16.015287 7
-28.852922 0.31298178 16.037403 4.5
-27.884781 0.3394317 16.070061 5.3333335
-27.787998 0.3076492 16.019522 4.25
-27.347265 0.36924428 16.086767 6
-27.286831 0.32645065 16.019499 4.75
-26.368614 0.33479729 16.055618 5
-25.306026 0.31477201 16.056204 5
-24.614868 0.31193978 16.090193 4.8000002
-24.122469 0.36413193 16.033607 6.25
-23.116087 0.38959807 16.07243 7
-18.107504 0.30900764 16.071184 6
-17.974977 0.37335601 16.057863 6
-15.734622 0.32612127 16.071325 5.3333335
-15.016695 0.32672128 16.031763 6.5
-43.804287 0.42251757 16.06675 6
-43.752518 0.43645608 16.07336 6
-7.849246 0.52921677 16.065863 7
-66.573204 0.64761299 16.041714 7
-66.576111 0.7987054 16.013815 7
-66.504814 0.8904193 16.099546 7
-66.540581 0.90488034 16.046942 7
-3.8051333 -0.90386856 16.187033 7
-44.979942 -0.20275617 16.15024 7
-43.242023 -0.21099238 16.150219 7
-43.185314 -0.22465235 16.189621 7
-15.118239 -0.2741251 16.193134 7
-14.961169 -0.24234274 16.134773 7
-7.1450796 -0.28536862 16.127806 7
-43.97974 -0.17826456 16.115639 7
-43.259144 -0.19969812 16.10918 7
-7.4742417 -0.13763486 16.122498 7
-18.329834 0.098224491 16.106928 6
-18.15506 0.043681234 16.174238 6
-44.889141 0.19692993 16.199232 7
-38.708168 0.17914867 16.120193 3.3125
-38.683872 0.19987452 16.154316 4
-29.980177 0.17225593 16.101625 1.5
-25.115189 0.17325574 16.152397 0.75
-24.570107 0.1725738 16.132452 1
-24.036446 0.18204416 16.177515 1.5
-18.621979 0.14473438 16.137815 0.99074078
-18.53841 0.15436943 16.151281 2.0119047
-18.415062 0.19414014 16.14901 3.875
-18.332834 0.16506977 16.12159 3.8874457
-18.153706 0.1545175 16.128351 4.0857143
-18.09203 0.17471078 16.172066 1
-15.763979 0.19048944 16.124952 6
-44.275913 0.26785502 16.10656 4
-38.820309 0.22819325 16.149521 3.5
-38.766777 0.241266 16.168194 3.491955
-38.678589 0.25347787 16.162525 3.7
-25.164034 0.28791457 16.191599 4
-24.594091 0.23659058 16.123091 2.7577639
-24.074814 0.29873133 16.193768 4.5777779
-18.713858 0.25019836 16.126373 5.3333335
-18.453537 0.23184893 16.145023 5.3194809
-18.273598 0.29697049 16.131973 6
-18.189182 0.26764476 16.131907 5
-18.004274 0.22909448 16.101959 3.5555556
-15.80932 0.28870267 16.170345 6
-15.75668 0.24131927 16.154095 5.52596
-14.860495 0.25352815 16.172794 4
-32.827385 0.32570845 16.162445 4
-32.273438 0.31853062 16.139736 3.9031529
-31.77359 0.31914592 16.115225 3.7313433
-31.277462 0.36804184 16.170538 5.5
-30.80805 0.30780619 16.181253 3.9793103
-30.778727 0.33432484 16.138718 4.6666665
-30.493389 0.32437116 16.153715 5
-30.392731 0.33291829 16.102509 5
-30.015562 0.31943762 16.128321 5
-29.994724 0.32405984 16.130571 5.0555553
-29.528669 0.36859322 16.109173 5.958333
-28.939411 0.32559103 16.126728 5
-28.32795 0.34030056 16.12422 5.1428571
-25.797588 0.34537801 16.133099 5.6666665
-23.713575 0.34279549 16.144981 6
-23.595182 0.39126533 16.11289 7
-18.648962 0.30417264 16.181652 4
-18.181257 0.3055442 16.101711 5
-18.096537 0.3629567 16.171139 6
-15.826781 0.34076658 16.158049 6
-15.771608 0.34533077 16.173624 6
-15.690953 0.38821197 16.121346 7
-15.016455 0.33008349 16.187544 6
-14.85806 0.35195026 16.167446 5.3424239
-14.732595 0.38077748 16.17116 6
-8.2288675 0.3520124 16.133036 6.0370369
-43.856033 0.43725461 16.121826 6
-43.775211 0.43856043 16.102987 6
-25.769892 0.40165162 16.179771 7
-15.776813 0.40324405 16.180885 7
-14.92073 0.44209194 16.1759 7
-8.1444855 0.46389031 16.150774 7
-8.0713959 0.43033403 16.137445 7
-7.751286 0.54556674 16.144295 7
-66.561676 0.65033174 16.150253 7
-66.582924 0.76802391 16.120155 7
-66.546669 0.89354891 16.140505 7
-66.53212 0.90445524 16.134632 7
-66.495674 0.90192944 16.1754 7
-3.5238423 -0.92471194 16.233459 7
-15.371867 -0.51363671 16.228493 7
-18.736912 -0.42962989 16.247616 7
-18.612637 -0.40975335 16.239494 7
-15.442694 -0.44556132 16.225294 7
-49.425755 -0.37970251 16.277819 7
-18.035387 -0.30608714 16.251263 7
-15.474147 -0.39457411 16.255936 7
-44.799828 -0.20111573 16.231007 7
-40.821739 -0.24633729 16.28898 7
-40.772186 -0.23639163 16.299316 7
-18.022533 -0.28190771 16.219273 7
-15.032409 -0.2568121 16.254307 7
-14.975174 -0.22735952 16.223473 7
-7.3077359 -0.25709578 16.217901 7
-0.52412182 -0.26818797 16.289724 4
-47.296883 -0.14453313 16.256298 7
-45.040871 -0.16623674 16.252604 7
-44.847454 -0.16621912 16.276733 7
-44.792355 -0.17564054 16.227106 7
-43.866272 -0.17638618 16.201447 7
-43.250061 -0.19419274 16.287373 7
-15.008271 -0.19635861 16.232407 7
-14.977587 -0.1977285 16.203167 7
-48.559845 -0.08844161 16.283424 7
-44.686256 -0.073638439 16.226557 7
-0.53555739 -0.053245619 16.284119 6.5
-44.886532 0.099241555 16.298754 7
-18.195547 0.094267637 16.231369 5.5
-31.362799 0.19571868 16.231655 1
-30.852903 0.19059959 16.211512 1
-27.779339 0.18462828 16.237122 1
-25.647701 0.16907135 16.224569 0.75
-18.815248 0.16703364 16.216721 5.25
-18.794292 0.14731157 16.228622 3.5
-18.601656 0.18138257 16.293131 1.5
-18.567234 0.18575412 16.238384 4.1764708
-18.177116 0.15498091 16.259769 3.5
-18.046724 0.13900045 16.249018 5.1666665
-17.690207 0.1842345 16.236675 2
-15.866735 0.19184729 16.205353 2.6666667
-14.941011 0.16914627 16.27202 5.6988096
-44.938812 0.28154147 16.249008 4.8000002
-44.862854 0.23615772 16.289022 7
-38.675232 0.23754454 16.20916 5
-33.886234 0.26518238 16.276999 2.3773293
-33.360458 0.2459496 16.236977 2.0578947
-32.785553 0.24344014 16.266319 1.3333334
-27.870508 0.24546058 16.231667 3
-25.594439 0.25761214 16.278793 2.9236641
-25.135664 0.24825107 16.223646 2.908397
-24.068384 0.29467398 16.219069 4.5
-18.929771 0.25206071 16.248312 6
-18.811594 0.20842552 16.243565 5
-18.675795 0.2238999 16.247641 4.25
-18.559599 0.25548655 16.223236 4.9285712
-18.460075 0.23521398 16.223143 5
-18.340986 0.24991685 16.269566 6.1333332
-18.216522 0.2821795 16.225052 4
-18.152637 0.20443724 16.282114 2.5
-18.041965 0.27178687 16.259993 5.3571429
-17.922087 0.2198201 16.276096 3.75
-17.586168 0.26151866 16.279421 6
-15.949261 0.20616177 16.211002 3.3333333
-15.854838 0.23814026 16.259373 4.5823526
-15.774487 0.27957749 16.234425 6.4000001
-15.061717 0.21875244 16.278822 6
-14.867599 0.26233211 16.239828 4.8300753
-47.394276 0.32803726 16.289825 4
-45.10812 0.37341219 16.273293 5
-45.059357 0.34195015 16.235226 4.6666665
-44.93869 0.33965361 16.296528 4.2791376
-44.844402 0.37840056 16.279024 5.6666665
-33.921574 0.35829824 16.224215 5
-33.892868 0.30286211 16.213655 3.5
-33.370361 0.31552833 16.228273 4
-32.819614 0.31803811 16.212227 3.6836734
-31.357815 0.34158084 16.247063 4.8650446
-30.876486 0.33967295 16.252239 5
-27.934248 0.32084003 16.247835 5
-27.773172 0.34247658 16.290255 5.1666665
-26.309912 0.33183485 16.233942 4.875
-26.284966 0.35876074 16.278851 5.5
-25.651155 0.30962738 16.259495 4.5
-24.622713 0.30106539 16.284306 4.7216496
-18.585619 0.33442944 16.233126 5
-18.433889 0.33190322 16.219187 6
-15.936531 0.36741075 16.295609 6
-15.833336 0.36122161 16.295486 6
-14.967715 0.36329317 16.241188 7
-14.877127 0.34187236 16.223568 5.75
-14.753534 0.31346631 16.294744 5
-8.1594677 0.33437583 16.289524 5.6666665
-48.742569 0.46678564 16.268831 6
