# .PCD v0.7 - Point Cloud Data file format
VERSION 0.7
FIELDS x y z intensity
SIZE 4 4 4 4
TYPE F F F F
COUNT 1 1 1 1
WIDTH 1385
HEIGHT 1
VIEWPOINT 0 0 0 1 0 0 0
POINTS 1385
DATA ascii
45.260712 2.7905843 18.022539 10
45.293819 2.8463874 18.046328 10
10.594417 3.1398799 18.059906 15
10.816126 3.1299691 18.082951 14
18.82637 3.3785686 18.074657 12
4.639576 3.9237621 18.052645 14
6.9502087 3.9270508 18.032995 15
36.539593 3.8168294 18.044853 13
41.298473 3.9776251 18.019373 12
19.844736 4.1763144 18.066923 13
28.254642 4.0597186 18.106274 11
41.306198 4.0047746 18.171604 12
36.412193 4.2936792 18.063156 14
-2.7710023 -0.65675056 18.235329 1
-2.5357938 -0.66898298 18.387545 1
-2.0963848 -0.64415175 18.356651 1
0.77419889 -0.57857674 18.355869 0
0.96618909 -0.57774484 18.356819 0.5
2.3043773 -0.57482308 18.209194 1
2.4082661 -0.56629944 18.356684 1
-3.2780008 -0.2789121 18.285185 5.2272725
15.740276 -0.38842258 18.323168 4
15.848541 -0.28736785 18.31337 5
17.433874 -0.36350366 18.285929 1
17.724079 -0.34519041 18.288622 1
17.941603 -0.32838479 18.346001 1
18.024033 -0.34541595 18.243759 1
18.230173 -0.32479703 18.398434 1
18.723572 -0.31514016 18.292002 0.66666669
19.686913 -0.29088163 18.248215 1
20.180973 -0.27351001 18.239143 0
20.224247 -0.26835558 18.200113 1
21.617346 -0.25599614 18.323559 1
22.693949 -0.25551748 18.38928 1
22.940605 -0.26906672 18.268085 1
23.101212 -0.26565602 18.299261 0.5
23.291679 -0.24711753 18.303986 0.75
23.693893 -0.26156905 18.355873 1
-3.2610288 -0.088689908 18.255993 6.5384617
15.651402 -0.096618831 18.318497 6
15.84489 -0.12667297 18.238258 5
23.536385 -0.020781994 18.287804 3
-3.3200378 0.12151615 18.312546 8.125
15.865062 0.047689952 18.286621 6
23.468899 0.14004999 18.318823 4.8888888
-3.5147882 0.29158717 18.223087 9
-3.3632042 0.2479182 18.327024 9
15.779935 0.23574662 18.235638 7
15.810222 0.25646734 18.244003 7
23.42878 0.33195317 18.310179 6.5454545
23.454472 0.53313529 18.284218 8.3000002
-9.3742437 0.76824296 18.238298 10
23.506433 0.65169513 18.381893 9
-9.3643217 1.1533754 18.309357 11
-9.3637781 1.3295099 18.360041 11
-9.2920141 1.7576489 18.319027 10
45.297153 1.9068751 18.393406 9
-9.2976894 2.4368496 18.304939 11
-9.4314156 2.6738174 18.275412 10
28.242924 2.9832246 18.309811 13
45.275177 2.8400936 18.227409 10
10.593525 3.1437988 18.247078 15
28.238985 3.0262244 18.323341 13
18.778929 3.3150902 18.366226 12
18.841112 3.3105435 18.301113 12
23.40543 3.3616021 18.220692 11
6.9708099 3.537389 18.394037 14
-9.4159555 3.7200246 18.298954 14
-9.2926064 3.8077674 18.255028 13
7.1974649 3.9610617 18.263254 15
28.276846 3.8981001 18.237099 15
36.421478 3.9083946 18.38854 13
41.299995 3.958889 18.387426 12
15.948719 4.0119758 18.385565 14
19.19426 4.1501522 18.374035 13
19.254843 4.1655011 18.338436 13
19.491438 4.1649828 18.317482 13
19.740965 4.1827126 18.350903 13
36.415344 4.3296347 18.320448 14
-2.7232854 -0.64066494 18.493446 1
-2.4786258 -0.64407909 18.41753 1
-0.33285329 -0.60277259 18.405544 1
-0.12282613 -0.6163255 18.422855 0
-0.082096457 -0.59818643 18.447832 1
1.6396283 -0.56164294 18.505966 1
2.9036512 -0.55534351 18.500053 0.5
3.1453571 -0.56009841 18.484421 1
-3.2311881 -0.28913701 18.553583 5.25
-3.1895347 -0.3359682 18.548805 5
15.805903 -0.23325007 18.464949 5
17.488174 -0.365136 18.41795 1
17.694826 -0.35227823 18.541334 1
17.968052 -0.33861405 18.583368 0
18.438675 -0.32667926 18.516691 1
18.629019 -0.30305979 18.46748 1
19.484789 -0.27318785 18.412189 1
21.152813 -0.28449741 18.540943 0
23.118179 -0.26080215 18.421312 1
23.259029 -0.26173985 18.587196 1
23.708242 -0.26578319 18.494171 3.5
-3.1817946 -0.091819592 18.568428 6.5
3.9487741 -0.10957066 18.435965 5.8333335
15.839015 -0.16639468 18.464279 5
23.598763 -0.026011437 18.555849 3
-9.3940239 0.090576179 18.535448 8
-3.2349491 0.11994971 18.597462 8
-3.167253 0.0073261112 18.580088 7
3.9831994 0.067054659 18.455681 7
4.0083809 0.089826234 18.431383 7
15.857553 0.04683001 18.486063 6
23.503136 0.11495922 18.539406 4.5833335
4.0528102 0.22408879 18.466398 8
15.782675 0.2587471 18.488314 7
15.812742 0.27386683 18.513056 7
23.434193 0.30446532 18.508703 6.2424245
-9.4793158 0.43910688 18.579956 9
23.473206 0.50633126 18.509827 8.045455
-9.3461952 0.77948761 18.584763 10
-9.3997545 1.1689333 18.573196 11
-9.3634453 1.2978424 18.512823 10.666667
-9.3813677 1.5138284 18.520863 12
-9.3621454 1.9840504 18.430687 11
45.313271 1.9830716 18.577137 9
-9.3807688 2.6005323 18.434704 12
8.5519781 2.6637156 18.490681 13
-9.3013849 3.1400797 18.421637 12
8.5063639 3.1181543 18.540184 14
10.579913 3.1043613 18.509584 15
10.7891 3.0813525 18.468575 13
10.814363 3.0997109 18.406773 15
-9.3796644 3.2185533 18.413464 13
18.83445 3.3503942 18.454191 12
19.762846 3.3714938 18.504927 15
21.904657 3.3900771 18.480301 15
23.370596 3.2854805 18.419304 11
6.97505 3.5519567 18.492046 14
10.829457 3.5683274 18.405828 14
-0.91271591 3.6249623 18.495598 12
12.948522 3.7004738 18.479803 15
13.054439 3.7008357 18.562061 15
44.859226 3.6485622 18.490835 11
4.7163343 3.9145653 18.566032 14
7.1675143 3.9334037 18.460468 15
7.2745972 3.9529865 18.555473 15
15.927213 3.9922228 18.448807 14
36.443157 3.8289778 18.55537 13
15.919917 4.0415444 18.536873 14
18.972031 4.0195336 18.443947 13
20.065125 4.1113348 18.438362 13
31.346275 4.3676095 18.519478 15
36.417095 4.3609452 18.521751 14
-2.1832173 -0.6227808 18.627455 1
-1.717562 -0.66069371 18.667576 1
2.1468151 -0.57687998 18.645641 0
2.3065798 -0.57023382 18.667252 1
2.7622302 -0.56104493 18.69796 1
3.1783941 -0.57113504 18.719713 1
3.3022313 -0.57051933 18.675398 1
-3.2268288 -0.29375046 18.744961 5.125
15.781816 -0.29484051 18.741783 4
15.808353 -0.21665239 18.657629 5
17.70052 -0.33775154 18.788994 1
18.119434 -0.31970692 18.645329 1
18.319345 -0.3132306 18.731567 1
18.525795 -0.30691588 18.676474 1
18.882494 -0.28961238 18.689898 1
19.015556 -0.28517827 18.618223 1
21.260653 -0.25950235 18.730135 2
22.551601 -0.26265612 18.747171 1
22.931116 -0.2737698 18.77146 1
23.175613 -0.25490671 18.709391 1
23.348169 -0.26176435 18.710979 1
23.46542 -0.2652303 18.78928 3
-3.1763201 -0.072478756 18.71249 6.6500001
15.726664 -0.12432989 18.685263 5
15.82707 -0.081585839 18.784859 5
23.593121 -0.0099615753 18.704899 6
-3.2529769 0.1118465 18.736729 7.9285712
4.0805612 0.09111096 18.75535 7
15.797628 0.10139555 18.77441 6
15.838392 0.098316044 18.71644 6
23.533524 0.16792308 18.793682 4.75
-9.3910847 0.39871132 18.656994 9
-3.2958403 0.23850247 18.739418 8.5
15.745766 0.2923682 18.720861 7
15.809011 0.22564739 18.683949 7
23.52574 0.32186061 18.766918 6.25
23.528008 0.55805618 18.674 8.25
-9.4230347 0.77774978 18.748259 10
-9.3819227 0.74929416 18.723518 10
-9.3054399 0.97209233 18.751163 10
-9.3678322 1.151966 18.684866 11
45.329239 1.1776425 18.665586 8
-9.4152241 1.5943456 18.661888 9
-9.3588448 1.4996281 18.709002 12
-9.3533936 1.770009 18.607573 9
45.316322 2.0521932 18.710058 9
8.5695934 2.6523781 18.785503 13
2.5675731 2.9670665 18.723286 12
-3.0192637 3.0590651 18.724157 12
-0.8377521 3.0461819 18.72522 12
10.563103 3.0780764 18.63044 13
-6.0543308 3.3694956 18.776684 11
18.825085 3.3436625 18.632271 12
6.9577866 3.5306542 18.672031 14
10.824689 3.4281008 18.792742 15
2.874285 3.6267982 18.778147 13
12.914438 3.693193 18.67495 15
7.3237309 3.9630246 18.636078 15
15.925684 3.9017491 18.700157 14
15.932195 4.0497923 18.634779 14
19.633461 4.1434546 18.776192 13
35.694901 4.4254146 18.75444 14
35.868576 4.4408064 18.769283 14
-2.5161755 -0.6534341 18.909462 1
-2.077539 -0.63786131 18.816568 1
-1.8345346 -0.64930999 18.864294 0.66666669
-3.2806396 -0.4046967 18.949314 6
2.3230028 -0.57765436 18.984049 1
2.4485543 -0.56157291 18.815041 1
2.7351127 -0.56872624 18.881943 0
2.9096684 -0.55107194 18.850981 1
3.1834092 -0.5666272 18.863277 1
3.3126888 -0.55444288 18.962128 1
15.734156 -0.40676993 18.873575 3
-3.2261586 -0.326123 18.89328 5
4.0966516 -0.23865627 18.850327 5
15.721304 -0.23063971 18.948997 4
17.41715 -0.36231816 18.839622 1
17.969929 -0.31430966 18.891197 1
18.111156 -0.32059208 18.884243 0.5
18.435299 -0.32798988 18.821875 0.5
18.604052 -0.3314504 18.921946 1
19.759043 -0.2707327 18.807253 2
21.809113 -0.25434184 18.900303 1
22.752853 -0.25846463 18.836805 1
23.652245 -0.24418852 18.811453 1
-3.1773608 -0.099986166 18.876211 6.375
4.0191455 -0.073176503 18.825211 6
15.77556 -0.083761498 18.946062 5.1999998
15.831813 -0.067399561 18.839436 5
-3.2370536 0.12282372 18.814667 8
-3.172153 0.013377408 18.877453 7
15.771768 0.11398649 18.945068 6.125
15.814336 0.076311924 18.865499 6
23.520737 0.10975491 18.874943 4.833333
23.632563 0.14262602 18.951355 4.75
-3.2641697 0.2262798 18.821665 8.5
15.726787 0.27651703 18.936897 7
23.525009 0.3194395 18.897465 6.4861112
45.328445 0.31706193 18.806494 7
15.544114 0.42676038 18.878761 8
23.585131 0.51316303 18.872292 8
23.663687 0.5442614 18.93914 8
23.732327 0.76033103 18.859955 9
-9.4208126 0.81383455 18.897911 10
-9.3315001 0.8750912 18.900219 10
-9.4070826 1.1428983 18.941545 11
-9.3459969 1.1461575 18.859058 11
-9.3487959 1.2517717 18.968058 11
-9.3680496 1.4879394 18.895584 12
45.106438 1.9014626 18.970875 9
45.337185 2.0276756 18.981379 9
45.235039 2.7905362 18.839851 10
10.826316 3.1186643 18.927677 13
27.920296 3.0172698 18.86335 10
-6.0426903 3.389554 18.994402 11
18.862425 3.379499 18.824917 12
-0.91690636 3.6464686 18.826443 12
10.831947 3.6141932 18.851871 14
45.297073 3.6640034 18.833202 11
6.9630785 3.9674721 18.986389 15
36.433289 3.9225936 18.913895 13
36.397049 4.2933059 18.937466 14
35.988342 4.4373064 18.989452 14
36.409523 4.4446449 18.845814 14
-1.7675529 -0.65623224 19.029089 1
-1.4530401 -0.61716098 19.186932 2
15.703502 -0.70326781 19.105328 4
-3.4017937 -0.42444837 19.189659 5
1.3412343 -0.57383841 19.053276 1
2.1577432 -0.57337689 19.07188 0
2.5424283 -0.57307202 19.170427 1
2.7087154 -0.55734062 19.066891 1
2.9007702 -0.56642568 19.103167 0.66666669
3.1937103 -0.56789166 19.099083 1
3.3098257 -0.54955262 19.174103 1
15.819929 -0.37488124 19.110115 5
17.396067 -0.36370623 19.066723 1
17.512075 -0.34989789 19.032953 1
17.750801 -0.3474901 19.12767 1
18.305723 -0.32767951 19.100471 0.5
20.384718 -0.28827405 19.112829 1
21.124561 -0.28162995 19.088795 0.5
22.48395 -0.26517177 19.188641 1
22.904869 -0.27171123 19.148449 1
23.296177 -0.267883 19.100334 1
23.506933 -0.25743371 19.018394 1
23.626749 -0.24113366 19.079262 1
-3.2397358 -0.042796433 19.119402 7
-3.18378 -0.074516274 19.060715 6.3888888
-2.6473567 -0.042805791 19.17572 7
4.1089525 -0.069514006 19.012403 6
15.684407 -0.10049049 19.099752 5.4000001
24.110533 -0.057742678 19.141397 4.75
-3.3041995 0.15659355 19.083649 8.1428576
15.586858 0.086992562 19.196579 6
15.752864 0.14366871 19.044825 6.5999999
23.594482 0.075153053 19.064323 4
23.656569 0.12859531 19.053526 4.9523807
23.887207 0.045226585 19.157804 5.6666665
24.069393 0.11743297 19.173889 5.75
24.323469 0.19201566 19.197731 6
24.574106 0.013053656 19.197941 5
24.823141 0.038019478 19.184902 5
-3.4073713 0.2787433 19.032459 9
15.012809 0.23021284 19.170933 7
15.503794 0.2759071 19.149799 7
15.69915 0.27715451 19.00503 7
23.640884 0.31000778 19.076391 6.75
23.82106 0.32785964 19.142246 7
24.05887 0.31317115 19.184395 6.75
24.387068 0.24224731 19.199986 6
14.954044 0.49247932 19.173771 8
15.191105 0.43096557 19.186363 8
15.337822 0.42475921 19.196383 8
15.431786 0.43483102 19.066116 8
23.680984 0.41137946 19.035725 7
19.017075 0.78913414 19.049414 8
23.769735 0.60405743 19.035589 8
25.215134 0.72964305 19.177034 9
-9.4351044 0.97005361 19.124914 10
-9.3468733 0.91014779 19.066843 10
-9.4390965 1.1188898 19.132149 11
-9.3378105 1.1372428 19.074562 11
45.311798 1.0342817 19.036449 8
-9.3787975 1.4786916 19.101877 12
-9.4012432 2.7008357 19.125919 10
8.5826702 2.6713951 19.180868 13
27.850935 2.921232 19.007101 10
10.585911 3.1171396 19.069347 14.75
10.618279 3.1655211 19.08326 15
-6.0591316 3.3679276 19.140867 11
10.822939 3.2058501 19.17458 13
4.529295 3.9310403 19.117867 14
4.6602497 3.9338002 19.14794 14
31.352962 4.365623 19.10589 14
36.428116 4.3336039 19.169828 14
-2.8004494 -0.66298103 19.317257 1
-2.4109368 -0.65538174 19.223505 1
-2.3554916 -0.65614009 19.295996 1
-2.0712216 -0.66070259 19.36405 0
-1.8666484 -0.62613249 19.267811 1
0.47262067 -0.56629747 19.268034 2
2.2780275 -0.57441431 19.3508 1
2.5589671 -0.55105013 19.369354 1
2.9318478 -0.56210923 19.304359 1
3.0402534 -0.58418363 19.255354 1
3.2853363 -0.57284307 19.314465 1
4.7600865 -0.43763831 19.263712 4.3333335
4.9063087 -0.46559703 19.309662 4
5.1389589 -0.46792418 19.343704 4.1999998
-3.2497044 -0.24953236 19.290575 5.3333335
4.6940403 -0.27313203 19.296673 4.75
4.899159 -0.31598556 19.300163 4.8333335
5.0488424 -0.22102724 19.317841 6
5.2407966 -0.31976488 19.3197 5
14.86051 -0.21698892 19.310091 5
15.174113 -0.31590995 19.321196 4
15.272115 -0.38974062 19.314987 4
15.478974 -0.37532213 19.330788 5
17.507782 -0.34235814 19.274628 1
17.666901 -0.3425175 19.313372 1
18.24271 -0.3115868 19.265192 0
18.623497 -0.31550103 19.257042 1
18.822952 -0.30439389 19.206604 0
22.712595 -0.25648159 19.228174 1
22.947578 -0.24237338 19.218119 1
23.081141 -0.26750171 19.378677 1
23.465136 -0.2725192 19.290926 1
23.702755 -0.25775409 19.303642 1
23.823845 -0.25730103 19.331917 1
-3.2289457 -0.070807986 19.301468 6.6875
4.722795 -0.12663093 19.294012 5.8571429
4.9139557 -0.17113116 19.243378 6
5.1353555 -0.12009023 19.280375 6
5.3099513 -0.13244431 19.303665 6
15.0156 -0.12710181 19.28503 5
15.268651 -0.13574453 19.291933 5.5
15.471288 -0.10391355 19.280066 5.1999998
15.635047 -0.093293793 19.208551 5.6666665
24.10288 -0.086768784 19.227814 3.6111112
24.298258 -0.11742272 19.258814 4
24.54751 -0.085510693 19.240864 3.8
-9.3479919 0.10347018 19.307005 8
-3.4824412 0.13261862 19.346243 8
-3.3060994 0.13278179 19.327255 8
-2.6880362 0.17223063 19.278191 8
4.7505035 0.038764454 19.25889 7
4.908452 0.065161645 19.273664 7
5.0288873 0.04314211 19.325613 7
5.2465949 0.088177226 19.32457 7
14.707857 0.045468718 19.283512 6
14.898789 0.096922487 19.285166 6.5
15.10265 0.061426461 19.313793 6
15.293864 0.13243842 19.324413 6.6666665
15.500408 0.10743397 19.268703 6.25
15.608107 0.052979499 19.243019 6
24.085737 0.10268309 19.238962 4.875
24.346294 0.13575533 19.219612 5.25
24.520916 0.11430544 19.222685 5.375
-3.5465465 0.34198439 19.364048 9.5
-2.6837473 0.38627806 19.263123 9
14.764425 0.29012132 19.316696 7
15.129048 0.28133887 19.312899 7
15.299694 0.26035151 19.319241 7
15.461074 0.27414143 19.274414 7
23.777901 0.31434697 19.213375 7
23.962231 0.28532916 19.225906 6.5
24.111784 0.31497321 19.23859 6.5
24.25765 0.37929443 19.244402 7
24.491484 0.35479704 19.254116 7
24.749344 0.38299054 19.233454 7
24.805347 0.24653865 19.217415 6
-9.3742743 0.44538695 19.227642 9
14.74102 0.47554404 19.250164 8
14.86396 0.447245 19.253246 8
24.110128 0.49495643 19.235308 7.75
24.7293 0.5413605 19.266598 8
-9.3349771 0.78621989 19.228216 10
-2.8155375 0.60309958 19.296051 10
-2.6244905 0.60044742 19.238506 10
14.220136 0.71058464 19.288702 9
24.748924 0.69389033 19.21241 9
-2.7762587 0.82386309 19.23584 11
-2.7791836 1.0296546 19.349342 12
-9.3559752 1.3220139 19.318279 11
-9.3648586 1.5220584 19.390421 12
-9.4275036 1.6076789 19.231815 9
-9.3830738 1.6975698 19.20981 9
-9.4025812 2.700896 19.358377 10
8.5866756 2.6709063 19.392614 13
10.739357 3.1254647 19.249063 15
-6.0328159 3.3749979 19.384914 11
23.400805 3.2735772 19.283916 11
6.9918652 3.5745702 19.324097 14
-9.4120579 3.6451335 19.324131 11
-0.89397812 3.64222 19.330837 12
15.936817 4.116188 19.274818 14
41.32338 4.1018825 19.285391 12
-2.3391097 -0.66258961 19.406641 1
-2.104475 -0.63562906 19.557926 0.5
-1.8448367 -0.65140098 19.484886 1
-1.7179111 -0.62603515 19.515448 1
-3.544205 -0.44291481 19.585205 6
-2.8666677 -0.46543258 19.466871 5
-0.75594807 -0.59973383 19.498529 2
1.3902081 -0.56588435 19.543619 1
2.2210944 -0.57761443 19.458199 0
2.4389715 -0.56745845 19.502459 1
2.6366174 -0.57309866 19.550066 0
2.9363341 -0.5460732 19.550055 1
3.2626579 -0.55834275 19.467102 1
3.4067943 -0.57731658 19.508291 1
-3.4094105 -0.34813625 19.552784 5.5
-3.3385642 -0.2910158 19.500355 5.409091
17.47434 -0.3571991 19.510025 1
17.748301 -0.3354848 19.573992 1
18.458126 -0.30299443 19.424631 1
23.22023 -0.25619724 19.550238 1
23.631866 -0.24166542 19.490223 1
-3.4212477 -0.093233772 19.540993 6.5
-3.3234665 -0.090221763 19.444393 6.4000001
-2.8765638 -0.040500805 19.490295 7
-3.536979 0.14790793 19.508127 8
-3.3560517 0.044880066 19.466307 7.1666665
-3.6290872 0.34734318 19.452562 9.5
-3.4837914 0.25542927 19.512829 8.5
-3.3899472 0.21823514 19.431612 8
-9.4065561 0.46002224 19.486258 9
-9.3488464 0.79785675 19.482426 10
-9.3522081 0.90371013 19.42836 10
-9.323947 1.1589005 19.560692 11
-9.3730478 1.5079216 19.419041 12
-9.3999062 1.6277159 19.554996 9
8.5616102 2.6251688 19.507711 13
45.284012 2.7984834 19.450634 10
-9.3744812 3.0695662 19.433004 10
10.587285 3.0995328 19.4114 15
6.7485471 3.5217915 19.507385 14
7.0109844 3.540081 19.580153 14
-0.90071869 3.6069551 19.560373 12
10.838998 3.6159542 19.599377 14
11.044842 3.6149709 19.521097 15
11.53648 3.6466737 19.548624 14
11.604594 3.6305273 19.562447 15
7.2716818 3.9755712 19.586039 15
15.956018 4.0720849 19.505707 14
30.290178 4.3543181 19.595625 15
-2.7599554 -0.64999747 19.647461 1
-2.5154712 -0.65440691 19.643261 1
-2.2695384 -0.63876778 19.658161 0.5
-2.1294777 -0.650581 19.62314 1
-1.9146374 -0.62982291 19.733948 1
-1.4135568 -0.61922222 19.75853 1
-9.3272266 -0.55369431 19.759453 6
-5.0755968 -0.4379378 19.796581 5
-4.7477117 -0.4108811 19.741991 5
-4.2440228 -0.53993469 19.780363 4
-3.8281906 -0.53284287 19.745201 5
-3.7271051 -0.48675856 19.701347 4.3333335
-3.526201 -0.45049787 19.646152 6
0.35276431 -0.56621206 19.627792 2
0.67692137 -0.57080609 19.673027 1.5
0.97705054 -0.55683923 19.646164 1
1.295418 -0.56770015 19.66333 0
1.882761 -0.57149458 19.788734 0
2.1807678 -0.54930156 19.653393 1
2.3321269 -0.57530719 19.711336 1
3.086822 -0.56422544 19.645233 1
-9.3323717 -0.2148453 19.784962 7
-5.1278653 -0.23561931 19.77437 6
-4.789156 -0.22225092 19.7833 6
-4.5056643 -0.37906003 19.723831 5
-4.2857404 -0.37031078 19.737694 5
-4.0953155 -0.28662956 19.728739 6
-3.8615642 -0.29582542 19.704985 6
-3.7341073 -0.29342195 19.735865 5.3194442
-3.4592433 -0.3120974 19.645906 5.6428571
-3.3989835 -0.27023625 19.64735 6
17.547272 -0.33784878 19.644865 1
18.384512 -0.32437527 19.65905 0
18.520769 -0.32009071 19.607986 1
18.766155 -0.31397086 19.692738 0
20.09581 -0.26374972 19.608532 1
22.72393 -0.25242949 19.635229 1
23.002913 -0.25819033 19.669418 1
23.742035 -0.24391912 19.681036 1
-4.482193 -0.12966967 19.740511 6.3333335
-4.3092256 -0.13035713 19.736387 6.3333335
-4.1200676 -0.032744013 19.769964 7
-3.829138 -0.083200239 19.744543 6.6666665
-3.7081802 -0.11590234 19.731657 6.5
-3.4608946 -0.089426771 19.684471 6.8888888
-3.3953092 -0.14975174 19.644651 6
24.625666 -0.029158503 19.785378 4
-9.340251 0.12232774 19.730902 8
-4.790164 0.15769406 19.75246 8
-4.4765167 0.012233302 19.738743 7
-4.3179374 0.13157986 19.771109 8
-4.18681 0.17368881 19.785889 8
-3.8675416 0.073142573 19.707043 7.4000001
-3.4672315 0.11993345 19.612993 7.6666665
-3.3968458 0.01671131 19.617073 7
24.695536 0.10772431 19.798601 5
25.991756 0.19402781 19.757816 6
-3.4934664 0.22436582 19.610435 8
24.567612 0.3959378 19.790611 7
25.08333 0.30755496 19.785904 6.5
28.503626 0.399178 19.776159 7
28.841705 0.3611865 19.71703 7
-9.35672 0.57864237 19.674067 8
24.612656 0.53903157 19.780895 8
24.818308 0.54650521 19.794302 8
25.102621 0.55367529 19.783014 8
26.074684 0.57704294 19.764835 8
28.70052 0.64412141 19.714848 8
-9.3574505 0.86352485 19.696825 10
28.74157 0.92904127 19.718624 9
45.323071 1.1854783 19.699198 8
-9.3681412 1.4980897 19.717148 12
45.311188 1.9231803 19.728369 9
45.325615 2.048646 19.700937 9
8.5997982 2.6762784 19.616825 13
45.3283 2.6968939 19.739883 10
-9.346014 2.8199408 19.780636 10
45.294693 2.9117954 19.611969 10
10.613614 3.162065 19.613094 15
10.848003 3.1282198 19.6735 14
16.746998 3.106812 19.665928 12
10.843585 3.2425337 19.646601 14
6.7520132 3.5257368 19.714802 14
6.993001 3.5271146 19.675278 14
10.832295 3.6117101 19.689661 15
12.179932 3.635288 19.617487 15
16.251694 3.6148415 19.738506 13
45.236904 3.6669552 19.704535 11
7.3986044 3.9746652 19.733765 15
7.4048414 3.9805338 19.677582 15
15.945016 4.1035414 19.704308 14
36.403595 4.4459386 19.672125 14
-2.7647886 -0.64379638 19.819607 1
-2.3849106 -0.65186542 19.804945 1
-1.8692732 -0.63161922 19.94212 1
-1.7862217 -0.62984097 19.813477 0
-0.95375425 -0.61725152 19.969612 0
-5.2699227 -0.45891923 19.823147 5
-0.89734638 -0.58435541 19.928257 1
1.8721488 -0.55151147 19.849985 1
2.1969275 -0.56743503 19.875744 0
2.7385268 -0.56667376 19.912189 0.5
3.2699521 -0.55023956 19.89505 1
-5.3223839 -0.25584215 19.80467 6
15.757048 -0.394528 19.906322 6
17.519585 -0.34397459 19.87941 1
17.602425 -0.32129037 19.984163 1
18.071472 -0.32365823 19.866285 1
19.717505 -0.27861977 19.865023 1
20.2379 -0.24770474 19.86751 1
21.143972 -0.26756757 19.968023 0
21.231728 -0.24975908 19.849464 1
21.567659 -0.23808527 19.971785 1
23.504864 -0.26950815 19.963352 5
23.797428 -0.25440088 19.965792 1
24.070913 -0.22775143 19.848173 3.5
-5.3223348 -0.048029557 19.80267 7
14.77119 -0.14372569 19.973261 5
14.83317 -0.19277835 19.953178 5
15.068405 -0.10622273 19.982635 6
15.357044 -0.092964873 19.952314 6
15.539835 -0.053433016 19.930067 6
23.750389 -0.012103349 19.924381 5.5
23.917589 -0.066168286 19.887669 4.125
24.135811 -0.097033292 19.843191 4.3333335
24.2624 -0.077198185 19.854273 3.9166667
24.474442 -0.049775552 19.854807 4.1666665
24.629261 -0.049821869 19.81543 4
-9.3245583 0.14623049 19.90872 8
-4.0903029 0.15533543 19.836864 8
14.645379 0.10341895 19.987713 6.5
14.817819 0.049633861 19.993315 6
15.022094 0.19423795 19.973396 7
15.254478 0.12883785 19.974348 6.75
15.559796 0.099035881 19.945921 6.4000001
15.613367 0.12188607 19.976078 6.25
23.580334 0.11824264 19.957232 5.375
23.647707 0.11742207 19.91716 5.090909
23.896671 0.10282174 19.885193 5.4912276
24.131109 0.117865 19.881845 5.5
24.355261 0.10985325 19.894737 5.1666665
24.411919 0.060782939 19.923429 5
24.656048 0.10787662 19.839071 5.125
14.340355 0.26383576 19.991491 7
14.458117 0.23588945 19.995052 7
14.715299 0.26432315 19.958403 7
14.945662 0.21005675 19.974049 7
15.076744 0.21647517 19.959463 7
15.398298 0.20790625 19.927792 7
15.539087 0.2440235 19.949181 7
15.622096 0.22724438 19.977135 7
23.549866 0.33302093 19.954695 6.75
23.676636 0.30928755 19.87258 6.5
23.91254 0.29903924 19.894794 6.5648146
24.122282 0.31371763 19.873123 6.6666665
24.322018 0.24133448 19.911575 6
24.553284 0.27966359 19.833328 6.25
-9.3567066 0.46666557 19.872906 9
14.268929 0.50299567 19.967258 8
14.703882 0.47996339 19.977571 8
14.950521 0.51443827 19.9683 8
15.105104 0.51503426 19.96516 8
15.331751 0.49830008 19.951122 8
15.535223 0.467325 19.991468 8
23.598616 0.42067128 19.938578 7
23.71241 0.52752972 19.89921 7.833333
23.891335 0.56199849 19.846497 7.9444447
24.074329 0.48116478 19.865383 7.5
24.299561 0.50496686 19.838089 7.5714288
24.555954 0.40540606 19.859938 7
24.789196 0.57288104 19.817238 8
24.893541 0.48548573 19.830116 7.5
14.375936 0.75689352 19.884771 9
23.874252 0.61587596 19.894373 8
24.082376 0.69403821 19.895018 8.666667
24.248634 0.73091078 19.880255 9
24.861498 0.76574469 19.836834 9.25
25.114647 0.73365718 19.834732 9
-9.3446732 0.8148433 19.958652 10
24.819267 0.9042474 19.84424 10
-9.3383312 1.1537826 19.924662 11
28.699703 1.2284787 19.85145 10
-9.3219414 1.4592248 19.914757 11
10.847363 3.1552975 19.944931 14.666667
10.848695 3.2635906 19.803402 14
-6.029686 3.441802 19.813152 11
7.0078983 3.5639608 19.847824 14
10.845289 3.624681 19.990078 15
7.3532553 3.9848447 19.850346 15
-2.8115015 -0.65782171 20.112902 1
-2.502538 -0.6321336 20.119612 1
-2.2886391 -0.63345385 20.017717 1
-2.1009974 -0.64675969 20.10535 1
-1.7438898 -0.63787812 20.002991 1
-1.3633881 -0.61084467 20.184917 1
-9.3418808 -0.56721604 20.045425 6
-0.46840867 -0.58823127 20.145887 1
0.71499312 -0.55140698 20.160418 1
1.3609271 -0.55695802 20.079344 1
3.2146282 -0.56267053 20.009731 1
3.474504 -0.53387761 20.111612 1
-9.3078728 -0.22593038 20.074036 7
4.9033933 -0.30066437 20.186699 4.75
5.3350439 -0.3719101 20.187466 5
5.9274821 -0.32318383 20.188683 5
17.451077 -0.35366133 20.190262 1
17.652889 -0.32747862 20.070028 1
18.10033 -0.31066826 20.033611 1
18.518307 -0.32176229 20.1 0.66666669
18.754166 -0.32007879 20.129311 0
19.143353 -0.29425901 20.051994 1
22.194815 -0.24665737 20.177872 1
22.738529 -0.27272817 20.193623 1
22.90431 -0.27278689 20.044655 1
23.697691 -0.23678973 20.079626 1
4.9190202 -0.081591085 20.186533 6.1666665
5.2297144 -0.16656886 20.191591 6
5.5049367 -0.1469405 20.180408 6
5.6954308 -0.10466 20.164743 6
8.0741873 -0.1843649 20.064203 6
14.960339 -0.090581179 20.007198 6
15.019135 -0.09200868 20.005825 6
15.22634 -0.11812948 20.024881 6
15.523842 -0.15894006 20.127459 5.6666665
15.741179 -0.050774314 20.048063 5.4000001
15.847818 -0.061746057 20.131401 5.125
23.594166 -0.025799751 20.070236 6
23.629578 -0.025414973 20.047543 6
23.868353 -0.024812311 20.000923 6
-9.3408823 0.11213371 20.120909 8
-2.5568342 0.16463132 20.183784 8
4.7976012 0.0074391961 20.180651 7
4.8893065 0.082339242 20.183376 7
5.1388068 0.027235441 20.195049 7
5.4468594 0.091372967 20.154346 7
5.8683066 0.11373619 20.15798 7
8.0873833 0.092158474 20.066078 7
14.258322 0.0034900904 20.046698 6
14.613322 0.021424785 20.019951 6
15.301641 0.19708514 20.009918 7
15.670886 0.090017974 20.055023 6
15.878095 0.12213205 20.145176 6.0999999
23.396399 0.11431429 20.18545 4
23.4967 0.099061511 20.113844 4.9895835
23.619572 0.059316449 20.031216 4.0999999
-2.6020131 0.36158305 20.115789 9
5.3299856 0.30250823 20.193974 8
5.4744883 0.29213861 20.185106 8
5.6657538 0.32671413 20.165255 8
5.9265385 0.31838295 20.182339 8
6.024909 0.35290796 20.185463 8
14.707747 0.2703377 20.061962 7
15.250916 0.21754444 20.030659 7
15.7572 0.28460962 20.073849 7
15.860082 0.24375029 20.176819 7
23.457355 0.31638297 20.088615 6.681818
-2.5345905 0.55203134 20.180136 10
5.7917137 0.50830227 20.159691 9
5.8231025 0.50890905 20.125286 9
14.335569 0.51903671 20.00419 8
14.509779 0.49494663 20.003307 8
14.975529 0.46447319 20.020321 8
15.179621 0.54827672 20.010422 8
15.382195 0.5925141 20.036144 8
15.515808 0.51850677 20.084002 8
15.65344 0.449211 20.048309 8
23.512278 0.55696851 20.119913 8
-9.3707638 0.68843663 20.1567 8
-2.5308406 0.74632275 20.184704 11
14.41617 0.75282001 20.025206 9
14.878357 0.74364066 20.101786 9
23.535543 0.62071472 20.120956 8.333333
23.882401 0.70657355 20.028591 8
-9.3436995 1.5153146 20.065845 12
-9.3836803 1.7375667 20.030273 9
10.859073 3.1549861 20.095507 14.333333
23.447542 3.3701143 20.184242 11
-6.0335732 3.4753218 20.007008 11
6.7618103 3.5175233 20.147585 14
7.020565 3.5370111 20.165892 14
10.856092 3.5655115 20.017054 15
10.857656 3.6320274 20.061975 15
11.029609 3.6410077 20.103695 15
7.3829632 3.9887764 20.033447 15
15.969193 4.0112462 20.150381 14
19.953596 4.1681156 20.038368 13
29.967442 4.3455458 20.13452 14
-2.6169064 -0.60171902 20.347111 4
-2.4267142 -0.61751252 20.253616 1
-2.3141904 -0.62832868 20.311163 1
-9.3226204 -0.545955 20.230492 6
-2.6624026 -0.4143253 20.315296 5
-0.11871812 -0.59705544 20.264969 0.5
2.3222389 -0.55987644 20.206982 1
2.8404469 -0.54947817 20.319992 1
4.8964777 -0.43576622 20.22451 4
-9.3209486 -0.20591989 20.356977 7
-2.5931413 -0.21976309 20.280958 6
4.5798182 -0.22285976 20.38798 5
4.6494184 -0.22968003 20.269638 5.5
4.865046 -0.28147909 20.229195 5.2272725
5.0741682 -0.24348634 20.22789 6
5.914206 -0.32921681 20.236294 5
6.0313835 -0.32496989 20.252037 5
17.539822 -0.33203179 20.252541 1
17.92234 -0.31142491 20.207939 1
18.377222 -0.30718857 20.39316 1
18.515949 -0.30197299 20.398846 1
18.640577 -0.3008979 20.368305 1
21.934326 -0.2609024 20.258759 0
22.500143 -0.24876177 20.349459 1
22.719261 -0.24302924 20.338373 1
23.046 -0.2670396 20.356047 0
-4.6448221 -0.039416969 20.379217 7
-4.5834379 -0.05223199 20.389263 7
-4.2535281 -0.025799818 20.375263 7
-2.6537294 -0.027547374 20.359352 7
-2.542557 -0.026536584 20.285868 7
4.5776687 -0.10541958 20.329584 5.75
4.6566381 -0.098871253 20.266911 5.9000001
4.8882279 -0.090045936 20.227728 6
5.0648336 -0.16382276 20.229521 6
5.3380513 -0.1463978 20.20055 6
5.692975 -0.10528015 20.201015 6
15.949283 -0.054773282 20.344107 5
16.016636 -0.033945799 20.372086 5
-2.6496294 0.16308418 20.350883 8
4.5334973 0.076749355 20.342978 7
4.6500659 0.10667777 20.292652 7
4.8788233 0.073646352 20.233047 7
5.0294857 0.071459047 20.262276 7
5.31738 0.078684941 20.215889 7
15.898788 0.11645082 20.293566 6.125
23.372835 0.17182109 20.301786 5.0999999
23.425684 0.14553072 20.255709 4.5833335
4.7258611 0.28922579 20.355984 8
4.8877215 0.29924336 20.310385 8
5.0782747 0.29133764 20.229115 8
5.279027 0.31325841 20.23057 8
15.91613 0.28507808 20.29446 7
23.357824 0.29674184 20.276993 6.1500001
-9.3525991 0.46779925 20.227524 9
-2.7982986 0.55351496 20.310371 10
5.7653236 0.52400756 20.233913 9
5.8152223 0.56770921 20.247671 9
15.74038 0.49219483 20.280634 8
15.824877 0.47122255 20.31983 8
23.368458 0.42556393 20.293575 7.125
23.447741 0.53262579 20.285334 7.9545455
-2.8354418 0.75680721 20.261185 11
23.454931 0.62671643 20.272404 8.6000004
-9.3524199 0.82021928 20.33778 10
-2.7206721 0.94709975 20.267759 12
-9.3100843 1.1735991 20.307842 11
-9.3473139 1.5137538 20.349237 11.333333
-9.3818302 2.7769172 20.243015 10
10.585942 3.1157484 20.24415 15
10.870483 3.1549883 20.321224 14.75
10.841437 3.2490239 20.364853 14
18.872276 3.2934792 20.357679 12
6.7629504 3.5222702 20.218517 14
10.847028 3.6398306 20.261366 15
15.964855 3.9584293 20.245289 14
15.966334 4.0327473 20.336784 14
19.683012 4.1744571 20.387337 13
-2.5510535 -0.64295435 20.55022 1
-2.3112116 -0.6426326 20.506359 0.5
-1.9262556 -0.61902326 20.524525 1
-1.421144 -0.60571027 20.484686 1
-0.63616735 -0.60121274 20.559969 1
-9.3264236 -0.53252333 20.465446 6
-4.2352819 -0.42639327 20.431005 4.8333335
-4.1356668 -0.5252468 20.434761 4.25
-3.9773605 -0.52197939 20.444139 4.3333335
-3.7312992 -0.50898975 20.469049 4.3333335
-3.3174026 -0.42277822 20.576799 4.3333335
-0.87484401 -0.59248292 20.404602 1
0.86464465 -0.55655795 20.580315 1
1.3873444 -0.55044216 20.435865 1
2.4761164 -0.55037969 20.47221 0.5
2.6881487 -0.54923546 20.429838 1
3.1112413 -0.56640977 20.464558 1
3.2462697 -0.5473485 20.499931 1
3.5306141 -0.54992145 20.440184 1
-4.6892343 -0.24184698 20.40983 6
-4.2446032 -0.2608726 20.429375 5.8000002
-4.1725945 -0.35120344 20.486023 5
-3.9297245 -0.30353832 20.438341 5.625
-3.7026305 -0.29926097 20.447836 5.5625
-3.294632 -0.261426 20.551682 5.3333335
4.387928 -0.28895631 20.556482 5
4.4478245 -0.28275785 20.525063 4.7777777
15.890455 -0.36521119 20.476452 6
17.6511 -0.34406692 20.470772 1
18.006392 -0.31727535 20.492275 1
18.749691 -0.29490438 20.448576 0
19.863081 -0.27423021 20.488008 2
20.116816 -0.27154729 20.446522 2
20.652029 -0.26173583 20.433805 2
21.579346 -0.25153795 20.566896 2
21.601555 -0.25166205 20.484163 1
22.729567 -0.25470385 20.539528 1
23.677965 -0.24878719 20.409803 1
-9.3143845 -0.19255263 20.492191 7
-4.2838798 -0.046113253 20.447889 7
-4.1232934 -0.10294785 20.471004 6.5
-3.9158752 -0.080192432 20.456228 6.8571429
-3.7219846 -0.13118276 20.442917 6.5
-3.297035 -0.10429483 20.544714 6.3333335
4.3777943 -0.062541582 20.5599 5.8333335
4.4877977 -0.10637579 20.488802 5.9000001
16.022242 -0.046627194 20.49366 5
-9.3376713 0.13679585 20.460228 8
4.3963671 0.047847774 20.455704 7
4.4759207 0.071389943 20.502819 7
15.915226 0.11621649 20.471449 6
16.033081 0.13434795 20.560871 6
23.356297 0.15550016 20.462042 4.75
-2.5772533 0.35010767 20.419708 9
4.564826 0.2628383 20.532906 8
15.793514 0.2973572 20.555632 7
15.868034 0.28917551 20.482601 7
16.036781 0.21181008 20.586357 7
23.331593 0.3129386 20.485371 6.375
-9.3498468 0.48079109 20.443081 9
15.877734 0.48008052 20.484261 8
-9.3509426 0.79379952 20.440668 10
-9.3803329 1.6266327 20.52869 9
10.621529 3.1051695 20.497046 14.5
10.85344 3.1008656 20.502148 13
10.867525 3.2514639 20.587709 14
18.870298 3.3814893 20.512848 12
6.9842634 3.5430593 20.43972 14
18.837189 3.4128423 20.51516 12
10.85066 3.6136088 20.487106 14
11.96348 3.6269448 20.554237 15
12.515265 3.640573 20.461063 15
12.794093 3.698261 20.433407 15
12.920031 3.6984801 20.427116 15
16.257149 3.6201818 20.509644 13
6.9786367 3.9173627 20.534779 15
15.959508 4.0562224 20.580803 14
18.764154 4.1042781 20.510626 13
-2.53847 -0.6551103 20.631519 1
-2.2731164 -0.65251714 20.79287 1
-2.1773088 -0.62074667 20.781601 1
-1.8574576 -0.61893874 20.708334 0
-3.2352765 -0.40251845 20.607628 4
-0.29675233 -0.59157497 20.632549 1
-0.095544353 -0.58717251 20.640266 0.5
2.2507014 -0.54627168 20.767384 0.5
2.7285447 -0.52140105 20.796822 1
2.9514341 -0.55906713 20.720936 1
3.0978606 -0.54931647 20.636847 1
3.2750695 -0.55965322 20.711367 1
3.467979 -0.55446583 20.791702 1
-3.2367632 -0.310366 20.707733 4.875
-3.1569827 -0.26973879 20.741274 5
4.3418784 -0.26639324 20.747345 5
17.399422 -0.34987465 20.708452 1
17.500549 -0.32795164 20.721407 1
17.66568 -0.31941527 20.778152 1
18.033707 -0.31170529 20.793882 1
18.369169 -0.30135435 20.618469 1
18.648899 -0.31473422 20.609016 1
21.145962 -0.26816288 20.799757 0
23.099964 -0.2428018 20.726582 3
23.462912 -0.2249946 20.766258 6
-3.2423606 -0.086264141 20.7313 6.4375
4.3406386 -0.10855693 20.677486 5.75
4.4042597 -0.090848356 20.664927 5.5
16.051111 -0.033143058 20.678946 5.8333335
-9.3354092 0.15182529 20.63731 8
-3.3842804 0.13847417 20.633425 8
4.3498559 0.099712953 20.683071 7
4.4508133 0.11167878 20.619102 7
16.051476 0.15644634 20.765066 6.3333335
23.350618 0.17862126 20.612965 5
4.4859061 0.27590919 20.69569 8
15.956157 0.29741076 20.762758 7
16.041954 0.21234055 20.650991 7
23.30965 0.31657726 20.684788 6.3000002
-9.3358383 0.5387814 20.62475 8.5
15.984791 0.47512189 20.750166 8
16.004019 0.43217024 20.68922 8
23.358023 0.49504626 20.716839 7.7948718
23.424515 0.54517025 20.760605 8.25
-9.3766623 0.81874835 20.795334 10
22.639027 0.89709687 20.733723 8
-9.321538 1.1358048 20.768522 11
-9.3373165 1.2147315 20.651356 11
-9.360323 1.5502398 20.642517 11.5
-9.3507471 1.6628335 20.726603 10.5
8.6095104 2.6933861 20.65163 13
10.860691 3.1510026 20.642616 14
10.875967 3.2545624 20.686485 14
18.836151 3.3594525 20.627197 12
4.0742221 3.4362304 20.733276 14
10.873088 3.4699092 20.661335 15
10.847506 3.6080363 20.641563 15
11.417362 3.6427011 20.745102 15
-3.2949901 3.8488808 20.787037 15
6.9732494 3.9789865 20.619408 15
7.2936058 3.9516306 20.789772 15
15.959469 3.9145777 20.680187 14
28.296049 4.03792 20.625799 11
-2.556361 -0.63080859 20.912796 1
-2.2458737 -0.61086005 20.958256 0
-1.9977279 -0.6248135 20.896082 0
-1.7106943 -0.61688209 20.828564 1
-3.1447935 -0.41524881 20.87528 4.25
-0.61154687 -0.5970642 20.949684 0
0.80754733 -0.5505082 20.975563 0
3.1305056 -0.57612294 20.898247 1
3.3123648 -0.56620497 20.884119 1
-3.1270401 -0.2404855 20.88084 5.125
4.3299694 -0.27205235 20.908043 4.5
4.4118032 -0.33709219 20.907528 4
17.488325 -0.32759416 20.908237 1
17.772558 -0.3107838 20.98455 1
18.31562 -0.31952217 20.860352 0
18.450424 -0.32759103 20.964672 1
19.99802 -0.26343301 20.996351 1
20.357729 -0.29464838 20.807579 1
21.048702 -0.28761479 20.827412 1
22.703079 -0.25659922 20.884438 2.3333333
23.097359 -0.24013725 20.900299 1
23.385269 -0.23636803 20.967541 1
23.602428 -0.24296394 20.909533 1
-3.1758268 -0.073093995 20.927856 6.333333
4.3206153 -0.093133539 20.867783 5.8125
16.025192 -0.042376071 20.805422 5
23.443911 -0.19978541 20.968193 6
-9.3786831 0.14605573 20.971329 8
-3.2162628 0.01266266 20.948973 7
4.3378277 0.10572772 20.877737 7
16.04414 0.13436337 20.919146 6
-3.9836938 0.29520029 20.897175 9
4.3763471 0.24943498 20.861485 8
4.41924 0.26697844 20.95129 8
15.937756 0.30392802 20.835081 7
16.033045 0.29197586 20.89995 7
23.3202 0.29112366 20.884291 5.7857141
15.965072 0.48023587 20.871258 8
22.699749 0.433303 20.847279 7
23.367493 0.50608563 20.812675 8
23.409636 0.57226062 20.871403 8.5
23.453268 0.67072177 20.955475 9
-9.3386087 0.84683615 20.80452 10
22.722534 0.99430543 20.800142 8
-9.4752474 1.1668411 20.819998 11
-9.4251432 1.211952 20.988348 11
-9.3239136 1.5604619 20.885073 11
45.366661 1.9539852 20.822861 9
-9.3762083 2.7509961 20.89868 10
8.597806 2.6655648 20.8736 13
4.3172417 2.9882905 20.986217 13
10.865406 3.1724164 20.989723 13
-3.3082278 3.3548639 20.886606 14
6.9397993 3.5249619 20.845516 14
31.443581 3.4079926 20.900963 15
-0.87975883 3.6691737 20.813292 12
7.0150099 3.6531887 20.995148 14
16.247841 3.6281812 20.965618 13
-3.277873 3.8614235 20.947227 14
-1.7564946 3.9305861 20.849201 12
3.8724136 3.9490011 20.989313 14
6.9945612 3.9648032 20.897289 15
7.0949697 3.9710383 20.993258 15
7.3146887 3.9912322 20.920382 15
36.424801 4.3041797 20.865993 14
-2.3590434 -0.63889468 21.041332 1
-2.1241279 -0.6205548 21.175667 0.5
-1.7913015 -0.61052823 21.165106 0
-0.09541744 -0.58426291 21.059908 0.5
2.2040913 -0.56162363 21.164114 0
2.4627216 -0.53780901 21.049862 0
3.0765862 -0.53373748 21.034424 1
3.2836595 -0.53650564 21.139372 1
3.5272851 -0.53936875 21.061666 1
-3.0686069 -0.26662812 21.086334 4.5714288
4.2911921 -0.273956 21.090828 4.875
17.31459 -0.36251822 21.07247 1
17.550449 -0.32400411 21.090603 1
17.958261 -0.2974174 21.024683 1
18.157887 -0.31899285 21.020456 1
18.705914 -0.31315112 21.044346 0.5
22.778618 -0.24008933 21.13633 2
23.075207 -0.25782061 21.065756 1
23.687214 -0.23642102 21.012543 1
-3.1368499 -0.083307885 21.102413 6.1999998
4.2960238 -0.071045093 21.096535 6.1111112
16.062878 -0.026250973 21.080246 5.5
-3.1782 0.042036109 21.161638 7
4.3201084 0.096711934 21.097073 7
15.957967 0.12691416 21.110062 6
16.010834 0.12674534 21.186398 6
23.392683 0.19651482 21.184772 5
4.4224758 0.25220972 21.034369 8
15.888997 0.30551538 21.108345 7
16.047222 0.26421386 21.091578 7
23.366518 0.26741752 21.165697 5.8333335
23.401106 0.20288458 21.13769 5
-9.3705616 0.49112076 21.067507 9
15.928425 0.47847974 21.123316 8
23.365425 0.42768809 21.197908 7
23.431227 0.5056569 21.157145 7.6666665
23.453306 0.63438392 21.188108 9
-9.3618317 0.83927572 21.150417 10
-9.3183222 1.1640694 21.155209 11
-9.3064013 1.2110075 21.002161 11
-9.3497972 1.6655043 21.085672 11
28.860233 1.722188 21.099512 11
-9.3256454 2.027282 21.147249 12
-9.3377705 2.4772012 21.14323 13
-9.3847713 2.6815562 21.0455 10
8.6061363 2.6561856 21.190771 13
28.9174 2.7583895 21.177467 10
-9.3328981 2.9290934 21.128061 14
3.6015244 2.9527073 21.03693 13
10.616691 3.0983658 21.094288 15
41.311131 3.1640882 21.017321 11
-9.3482046 3.3937094 21.126377 15
31.43977 3.4309855 21.044205 15
-3.3129385 3.6755052 21.109409 13
-3.1986847 3.7507317 21.10084 13
12.971799 3.708375 21.167427 15
16.030508 3.6266112 21.146175 13
-3.3284006 3.834549 21.028225 14
-1.6213162 3.9605865 21.128155 11
-0.2986044 3.9548612 21.063158 12
0.65056676 3.9592061 21.084743 12
15.965933 3.9909153 21.05188 14
41.333332 3.9061015 21.008894 12
15.580086 4.1560874 21.09647 14
15.79347 4.163722 21.18359 14
15.961818 4.0502524 21.05065 14
41.080399 4.6024089 21.017866 13
-2.7696667 -0.64012444 21.273586 1
-2.5580873 -0.63256526 21.325911 1
-2.1295726 -0.63640881 21.217871 1
-3.1075349 -0.45838708 21.303827 4
-1.5382854 -0.58248895 21.30641 1
-0.8822096 -0.59615731 21.319895 1
2.2377393 -0.54563624 21.200403 1
3.0190651 -0.55099565 21.213224 0
3.2878532 -0.53938407 21.371181 1
3.4044056 -0.54663056 21.326237 1
-3.0697975 -0.25232327 21.314234 5.0714288
4.3132105 -0.23487198 21.312214 5
17.391342 -0.34529069 21.395773 1
17.526949 -0.32315284 21.242138 1
17.639191 -0.32374078 21.319075 1
17.890848 -0.30789152 21.211178 1
18.045944 -0.31908008 21.250454 1
18.85556 -0.29837081 21.366188 1
19.404587 -0.27077162 21.396748 1
20.224442 -0.28804079 21.277142 0
21.201347 -0.25144339 21.207346 1
21.469069 -0.23176086 21.342766 1
21.96574 -0.24178717 21.254654 1
22.913179 -0.25552848 21.387691 0
23.355164 -0.24491087 21.27177 1
-3.1167192 -0.080751605 21.281239 6.3148146
4.3018494 -0.0980803 21.307343 5.6666665
4.4137321 -0.058305077 21.282249 6
15.950028 -0.041912153 21.275866 5
16.042862 -0.040909857 21.256474 5
-3.1548824 0.031045876 21.344826 7
4.3689613 0.11914378 21.362579 7
4.441165 0.11928032 21.385437 7
15.949585 0.100018 21.271423 6
16.061813 0.0092883408 21.255217 6
23.4907 0.11585986 21.302065 5.0333333
23.611954 0.065761924 21.380735 5.5
-3.8890522 0.30318326 21.32682 9
4.4577065 0.25911188 21.341694 8
15.96085 0.30706134 21.286728 7
16.02161 0.27134654 21.269079 7
23.385429 0.33220306 21.258364 6.4444442
23.449991 0.3192535 21.307083 6.5
-9.4086647 0.5190227 21.395063 9
15.880694 0.47367039 21.288136 8
23.366467 0.41517347 21.223038 7
23.509008 0.53329539 21.293119 7.8888888
23.61824 0.56503689 21.353704 8.166667
23.529081 0.64129239 21.283508 8.4285717
23.682085 0.74203455 21.341599 8.6000004
-9.3337173 0.88875043 21.263199 10
28.679787 1.0687193 21.309004 9
-9.3227291 1.2726247 21.316254 11
28.784431 1.3902193 21.235439 10
-9.3070612 1.5983362 21.265289 11
-9.3557081 1.639575 21.341377 10.5
-1.2889273 1.9054104 21.391811 12
-1.0637392 1.894021 21.364779 10.833333
-0.94710606 1.9236678 21.368378 11.333333
-9.3306074 2.0835161 21.203314 12
-1.4015279 2.1415346 21.384415 12
-1.3621321 2.1239996 21.37571 12.25
-0.91599762 2.1183896 21.366833 11.875
-1.2618859 2.3611331 21.350155 13
-1.0529879 2.3071921 21.347799 11.666667
-0.91278207 2.318686 21.347839 12
-0.72545075 2.2126474 21.357115 10
-1.0836701 2.4496117 21.365967 14
-0.82204074 2.4215891 21.368107 11
-9.3337059 2.7762661 21.33757 15
-1.1331358 2.6777537 21.382206 13
28.397404 2.7410517 21.316389 10
-4.1656618 2.9773078 21.396744 13
-3.2964387 2.9529436 21.390337 12
-1.2672749 2.9376075 21.310806 11
-1.0983288 2.959976 21.359938 13.166667
0.081662737 2.9849062 21.384705 13
-3.25122 3.0447271 21.384436 14
-3.0954988 3.0510938 21.393661 14
-2.1414344 3.1186283 21.397318 11
-1.0901152 3.0412955 21.354395 12.6
0.041974187 3.0988662 21.38241 13.333333
0.27564263 3.1057649 21.39768 12
1.0188102 3.0699062 21.38353 11.666667
1.2322514 3.0649452 21.346474 13
2.7655964 3.1094289 21.356564 13
8.6978035 3.0967922 21.258911 14
10.631251 3.1744044 21.292889 15
10.870038 3.1365318 21.248774 15
32.64011 3.01951 21.227615 13
-3.6004124 3.3008828 21.287407 13
-3.5586972 3.3361733 21.357552 13
-1.0978659 3.3873689 21.272593 14
10.876642 3.2576647 21.396709 14
-9.3344383 3.4639871 21.24498 15
-3.2980204 3.5677943 21.290451 14
-1.1049035 3.4677994 21.298958 14.25
3.8510549 3.5324433 21.218384 14
4.1927252 3.4299529 21.289362 13
-3.3038013 3.6159701 21.342861 13
-0.8681469 3.6778035 21.279903 12
15.982272 3.6537428 21.229469 13
0.92891288 3.9924836 21.304043 11
4.6460819 3.9317415 21.26421 14
-2.7527523 -0.62576538 21.508545 1
-2.2935257 -0.6305294 21.439795 1
-1.6084533 -0.60908914 21.456652 1
-3.0973692 -0.4304547 21.446169 4
-1.3211285 -0.57935464 21.47448 1
-0.53035367 -0.58301759 21.411919 1
-0.082064062 -0.57199144 21.50239 0.5
0.73247427 -0.55921453 21.502335 0.5
1.8774416 -0.51468146 21.477932 1
2.2363553 -0.56970018 21.5854 0
2.9598699 -0.54139471 21.441544 1
3.3597634 -0.52587813 21.497753 1
-3.0926011 -0.28133264 21.496962 4.5714288
4.3649678 -0.2635785 21.542377 5
4.4495378 -0.28728512 21.561731 4.25
17.49139 -0.32456025 21.545412 1
17.980013 -0.31706125 21.587339 0
18.247238 -0.30110592 21.458687 0.5
18.534813 -0.31620866 21.516214 1
18.849268 -0.29723093 21.409904 0
19.724716 -0.28408781 21.535975 1
20.060427 -0.28014097 21.452728 1
20.250118 -0.26567143 21.525862 0.5
21.103443 -0.26725423 21.508427 0.5
21.259394 -0.26901844 21.479424 1
22.492943 -0.23975053 21.527248 0
22.728811 -0.25635457 21.410694 1
23.013321 -0.23092368 21.448885 1
23.598145 -0.24447864 21.450001 1
23.948719 -0.20733266 21.525154 7
-3.2007093 -0.0022023097 21.496048 7
-3.1457145 -0.093440771 21.450949 6.1999998
4.3703637 -0.073835358 21.534798 5.7222223
4.4357319 -0.090411209 21.462952 5.5
8.1786108 -0.082942426 21.598425 7
15.657947 -0.077634484 21.57135 5
15.923309 -0.034736194 21.483406 5
23.893606 -0.052185051 21.527069 4.2857141
24.138819 -0.09607143 21.577261 3.3333333
24.348011 -0.070453033 21.582762 3.5
-3.203393 0.040420018 21.546352 7
-3.1755822 0.020221099 21.462034 7
-2.6629124 0.10105546 21.538742 7.5
4.3672466 0.1202631 21.50749 7
4.4769416 0.1066367 21.57612 7
15.933367 0.12954788 21.474199 6
16.001122 0.16675201 21.414406 6
23.54335 0.10744349 21.43401 5.1999998
23.681133 0.10980753 21.551718 5.1538463
23.911022 0.1005675 21.563978 5.4285712
24.129112 0.1264123 21.561058 5.3000002
24.3342 0.12473989 21.562063 4.8333335
24.444384 0.059452504 21.548645 5
-2.704483 0.36175376 21.447384 9
4.5416331 0.2620298 21.509289 8
8.6672401 0.39115074 21.449839 8
15.797386 0.28596017 21.595284 7
15.874825 0.30025491 21.49308 7
23.552057 0.31148702 21.496971 6.5138893
23.667257 0.30344772 21.567915 6.5
23.924372 0.31873724 21.551178 6.6999998
24.242985 0.29694551 21.574484 6.5
-9.3089371 0.56696337 21.410063 9
-2.6864002 0.53449196 21.466927 10
15.763205 0.47070754 21.558826 8
23.47039 0.41784161 21.407713 7
23.687664 0.52736473 21.51685 7.8000002
24.065531 0.44500321 21.574844 7
24.581507 0.41423458 21.51119 7
24.631664 0.57520354 21.598137 8
-9.324667 0.70387846 21.516054 8
-2.6331487 0.70020151 21.526983 11
23.73238 0.63323808 21.505501 8.333333
23.896843 0.68362737 21.552471 9
24.110836 0.70945817 21.581196 9
-9.4235964 0.87832111 21.57082 10
-9.3981161 0.84952784 21.524139 10
-2.7802951 0.888951 21.515358 12
7.9230528 0.82695985 21.501184 9
45.385796 0.92802227 21.415627 8
-2.7908432 1.0672488 21.529621 13
-9.3115435 1.2025319 21.497099 11
-9.3001347 1.6456039 21.56179 11
-9.3335104 1.9730346 21.48645 12
-1.369571 1.9643371 21.419632 12
-1.0774964 1.8104022 21.414936 13
-0.96008396 1.9422047 21.415432 11.5
-9.3110952 2.0819228 21.498194 12
-1.3736485 2.0480146 21.413826 11.666667
-0.93033934 2.0281045 21.405188 11.5
-1.2560225 2.3702567 21.408461 13
-0.97614074 2.3646023 21.401339 13
-9.3242817 2.4747562 21.48526 13
-9.2714205 2.7052224 21.484158 14.5
-9.1202898 2.7250335 21.484503 15
-1.1214726 2.7806256 21.440975 13
-9.3255386 2.8806767 21.488054 14
-9.1771116 2.8588014 21.481628 14.5
-3.3234918 2.9624624 21.416018 13.5
-1.709837 2.9719944 21.482597 15
-1.5730959 2.9334071 21.524586 14
-1.0447761 2.8606265 21.540096 11
-0.015053885 2.9787748 21.455351 12
3.5072403 2.9506822 21.595596 11
-9.3165207 3.0125089 21.419422 14
-3.8135126 3.1498072 21.521339 12
-3.3212149 3.0388899 21.408401 12.5
-2.9243698 3.0924883 21.421936 14
-1.5179327 3.126523 21.566523 12
-1.0944482 3.1103718 21.45933 12
-0.0013287403 3.118365 21.456738 12
0.0052176542 3.012542 21.423098 14
9.4525824 3.1933146 21.596046 12
10.872808 3.1381063 21.468605 15
-9.344039 3.3167806 21.48513 15
-6.0179062 3.3735807 21.455055 11
-0.83240956 3.4996262 21.47998 15
1.8878018 3.4638035 21.439713 13
6.9889741 3.5555038 21.476946 14
7.0174136 3.5743628 21.571056 14
10.863804 3.4898226 21.574615 15
-0.86842346 3.6910503 21.431469 12
7.0114861 3.6488161 21.449749 14
11.440357 3.6433961 21.53624 15
12.34552 3.657753 21.496647 14.5
16.11729 3.6397681 21.425718 13
-1.2748526 3.9625092 21.42528 12
32.409897 3.9323616 21.598841 12
15.93332 4.1588931 21.528641 14
-2.8394215 -0.64218092 21.660738 1
-2.5162773 -0.62141466 21.714352 1
-3.1451859 -0.43954447 21.787674 4
-2.7561409 -0.50242257 21.608299 4
-2.2967784 -0.59665275 21.702396 1
2.2542787 -0.54778439 21.628542 1
2.6498957 -0.54723811 21.705128 0
3.0720346 -0.5322938 21.711544 0.5
3.3134317 -0.53182292 21.685873 1
-3.1551232 -0.28373361 21.730162 4.5999999
-2.6925905 -0.32507372 21.602022 5
4.4723067 -0.28185415 21.67082 4.2857141
4.6331763 -0.33184639 21.764963 4
17.456854 -0.33772269 21.685179 1
17.62302 -0.31622779 21.669186 1
