# .PCD v0.7 - Point Cloud Data file format
VERSION 0.7
FIELDS x y z intensity
SIZE 4 4 4 4
TYPE F F F F
COUNT 1 1 1 1
WIDTH 1295
HEIGHT 1
VIEWPOINT 0 0 0 1 0 0 0
POINTS 1295
DATA ascii
7.6993117 -0.48281479 -17.120399 3
8.0467739 -0.45772722 -17.141134 5
-3.9013348 -0.37831157 -17.108225 7
-3.6957555 -0.37709552 -17.12516 7
-3.4255142 -0.37314793 -17.123402 7
-3.3231394 -0.38493764 -17.117662 7
-3.2182612 -0.36848107 -17.105875 7
-3.1575954 -0.36752808 -17.120508 7
-3.0323424 -0.34809485 -17.106689 6.84375
-2.9595389 -0.3719368 -17.117006 7
-2.8253262 -0.37288058 -17.124666 7
-2.7470491 -0.35032758 -17.120804 7
-2.6471076 -0.36449108 -17.121494 7
-2.5456116 -0.39096159 -17.129333 7
-2.4187791 -0.35965899 -17.123779 7
-2.3473597 -0.33369198 -17.106979 7
-2.2631209 -0.35992739 -17.126259 6.9047623
-2.1509581 -0.36637235 -17.123171 7
-2.0449262 -0.36077249 -17.128744 7
-1.9529229 -0.35964552 -17.118481 6.8409095
-1.8592741 -0.3522673 -17.138422 6.7082038
-1.7588289 -0.35818827 -17.128103 6.7746291
-1.6608137 -0.36592707 -17.12476 6.9327731
-1.5545797 -0.35386258 -17.128742 6.8582568
-1.4482534 -0.33832219 -17.13512 6.9243698
-1.3423522 -0.34598586 -17.135839 6.7398691
-1.2521511 -0.34736022 -17.126923 7
-1.1568998 -0.36904377 -17.133362 6.8026319
-1.0540212 -0.34344673 -17.144234 6.8782892
-0.93959045 -0.34917375 -17.135204 6.861856
-0.83760762 -0.35521752 -17.14185 6.8919754
-0.74799317 -0.34568185 -17.142509 6.7820511
-0.65763485 -0.36187929 -17.152761 6.802002
-0.57412595 -0.35529327 -17.15209 6.6666665
6.9807005 -0.30817235 -17.124643 7
7.0212483 -0.35263535 -17.145761 6.5
7.3590317 -0.32192907 -17.107189 4.6041665
7.561903 -0.31555557 -17.102062 4.597826
7.6875448 -0.31442004 -17.104733 4.5
7.91889 -0.30804852 -17.110245 6
8.003727 -0.32256785 -17.19751 5
-3.337342 -0.29078773 -17.128078 7
-3.1148875 -0.26147968 -17.133318 7
-3.0411904 -0.25721166 -17.10737 7
-2.9216557 -0.21928935 -17.118689 7
-2.8483596 -0.26137659 -17.115988 7
-2.4633584 -0.27509639 -17.14052 7
-2.3758898 -0.25660732 -17.103394 7
-2.1202374 -0.26906666 -17.139959 7
-1.9476333 -0.26817381 -17.11718 7
-1.8562695 -0.28046489 -17.114853 7
-1.7649876 -0.23858039 -17.123802 7
-1.6586183 -0.26411763 -17.11865 6.8406639
-1.5350858 -0.25425714 -17.138998 6.8875813
-1.448071 -0.27715021 -17.130188 7
-1.3539686 -0.26980135 -17.124496 6.8767858
-1.2612075 -0.25334573 -17.108643 7
-1.1537833 -0.25971806 -17.128397 6.9444447
-1.0748298 -0.25944966 -17.134911 6.8766026
-0.92711264 -0.25713754 -17.128258 7
-0.85174537 -0.25750491 -17.133213 6.88345
-0.75452596 -0.26617965 -17.134415 6.8321762
-0.65447867 -0.25012577 -17.140522 7
-0.5864737 -0.23119695 -17.15357 7
6.8206916 -0.29842135 -17.127365 7
7.5303221 -0.21252392 -17.100733 5.75
12.05965 -0.28267932 -17.14852 6
-1.8437153 -0.18401328 -17.115532 7
-1.3741648 -0.19910601 -17.151134 7
-1.1457858 -0.17695349 -17.160011 7
-0.97814238 -0.19825791 -17.16642 7
-0.7219978 -0.17559674 -17.122112 7
-0.6517753 -0.18543547 -17.14139 7
-0.57888103 -0.19087078 -17.140644 7
7.3498678 -0.13150841 -17.147236 6.75
7.4572744 -0.16300391 -17.120594 7
8.6855564 -0.16742754 -17.129272 7
-2.892844 -0.066273667 -17.107098 6
-0.60636699 -0.0085448399 -17.158493 6
7.5002594 -0.063452519 -17.107439 7
7.6438603 -0.097201124 -17.15867 6.5
13.306157 -0.04656487 -17.141197 7
-3.01162 0.22599244 -17.103867 7
-2.9185224 0.22826187 -17.113104 7
-1.8473318 0.24798015 -17.10807 7
-1.7934247 0.24955353 -17.122417 7
-1.5501016 0.25398669 -17.12944 7
-1.1348445 0.26096573 -17.135117 7
-0.76715809 0.26682433 -17.14053 7
-0.60977554 0.26977801 -17.155197 7
41.763569 0.30221921 -17.189081 7
-1.7801379 -0.89627188 -17.05789 6
-1.5230759 -0.89812469 -17.095526 6
-3.1229744 -0.70815682 -17.0341 7
7.1091967 -0.72227716 -17.091045 7
7.2712164 -0.72253132 -17.055962 7
-3.3739631 -0.64932805 -17.052294 7
-3.1412055 -0.68612105 -17.044344 7
-3.0810647 -0.60708064 -17.088963 6.5
-2.7563338 -0.65974176 -17.071457 7
-2.5663195 -0.652417 -17.088287 7
-2.2047038 -0.61728275 -17.084229 6
-1.9886513 -0.63998139 -17.013435 7
-1.8850098 -0.65346324 -17.094851 7
-1.5943413 -0.67055386 -17.026146 7
-1.305706 -0.61301982 -17.03034 7
-0.88796043 -0.60489023 -17.080538 5.75
-3.9274902 -0.52455294 -17.041981 7
-3.8526657 -0.53592867 -17.057953 6.3333335
-3.7909892 -0.51704854 -17.099808 7
-3.6340294 -0.53536689 -17.028107 6
-3.5293136 -0.5105477 -17.073462 7
-3.4043636 -0.54940653 -17.031883 7
-3.3726463 -0.56266403 -17.053844 7
-3.2679262 -0.54733121 -17.056532 6.6666665
-3.1463075 -0.5601927 -17.068039 6.5
-3.0740254 -0.58476144 -17.092827 6
-2.93859 -0.58023053 -17.061472 7
-2.543406 -0.53512639 -17.067827 6.3333335
-2.466969 -0.50353569 -17.07999 6
-2.1589534 -0.58720946 -17.083685 6
-2.0609379 -0.58203739 -17.030632 7
-1.9720985 -0.537184 -17.089317 7
-1.8669223 -0.55774885 -17.094713 7
-1.7049885 -0.56902492 -17.031759 7
-1.0152193 -0.53321356 -17.099194 7
-0.95100951 -0.5328663 -17.095976 7
-0.69509387 -0.52800089 -17.094973 5
19.478825 -0.50001663 -17.011375 6
-3.9302454 -0.44367468 -17.051319 7
-3.8648922 -0.45711002 -17.02659 7
-3.7689793 -0.44438916 -17.051914 7
-3.6390486 -0.44076821 -17.045616 7
-3.5235846 -0.45384666 -17.070166 7
-3.4454083 -0.44170913 -17.073359 7
-3.36586 -0.44268635 -17.06497 7
-3.2690864 -0.45784688 -17.084105 7
-3.1579802 -0.43878141 -17.070797 7
-3.0241461 -0.47417957 -17.089207 7
-2.9389315 -0.47435415 -17.094154 7
-2.8914945 -0.42233154 -17.078747 6
-2.7487926 -0.44629925 -17.080757 6.5
-2.6418967 -0.41315645 -17.057491 6
-2.5472472 -0.42996153 -17.063807 6.3333335
-2.4369817 -0.46026158 -17.082455 6.5999999
-2.3588357 -0.41600901 -17.060711 6.1428571
-2.1381485 -0.42083693 -17.089672 6.5
-1.9653835 -0.44393674 -17.094149 7
-1.869771 -0.43268096 -17.086329 7
-1.2268877 -0.41186744 -17.096746 7
-1.1568546 -0.44291803 -17.09869 7
7.0311613 -0.44191164 -17.083012 6
7.1319799 -0.44959831 -17.061935 6
7.363493 -0.43525481 -17.049248 6
19.878235 -0.49436182 -17.062298 6
20.264679 -0.4869749 -17.084257 6
20.656656 -0.47570616 -17.062422 6
21.061539 -0.46643972 -17.049263 6
21.468956 -0.45658576 -17.020697 6
21.906567 -0.4535777 -17.044371 6
22.333342 -0.45110327 -17.06028 6
22.552828 -0.44565284 -17.026358 6
-3.9244857 -0.37014809 -17.028341 7
-3.8893321 -0.39454594 -17.058409 7
-3.7564516 -0.3876718 -17.084759 7
-3.6564698 -0.36889365 -17.070139 7
-3.5251598 -0.37167063 -17.09798 7
-3.3016191 -0.36379319 -17.065899 7
-3.2019317 -0.30653927 -17.063099 7
-3.1754789 -0.3299771 -17.094408 7
-3.0879159 -0.39441296 -17.063532 7
-2.9494286 -0.38615981 -17.076157 7
-2.8400671 -0.39295954 -17.082428 7
-2.5300016 -0.39378139 -17.071646 7
-2.4424453 -0.37347326 -17.083178 7
-2.3851047 -0.38953584 -17.085056 7
-2.2609816 -0.36360037 -17.075695 6.75
-2.1621981 -0.35772511 -17.062588 6.78125
-2.0526242 -0.36860824 -17.066603 6.5595236
-1.9760365 -0.34908301 -17.082737 6.2142859
-1.7312523 -0.3850722 -17.093958 7
-1.3317177 -0.38079113 -17.09724 7
-1.1342516 -0.37507841 -17.094648 6
-0.61987084 -0.3625313 -17.098822 6
7.0590611 -0.33247256 -17.077168 6
7.2940512 -0.31754163 -17.077316 4.5
7.3827744 -0.3228856 -17.083914 7
7.4455261 -0.34312218 -17.057735 5
7.5468478 -0.30969444 -17.070229 5.6666665
13.432691 -0.31863713 -17.085093 6
-3.7083356 -0.29710281 -17.079199 7
-3.1217079 -0.26420566 -17.071085 7
-3.0817685 -0.2695646 -17.073229 7
-2.9561541 -0.23952277 -17.048861 7
-2.8666468 -0.24469984 -17.084 7
-2.5226183 -0.2608448 -17.081768 7
-2.4463413 -0.25622094 -17.054941 7
-2.1937692 -0.26263395 -17.050201 7
-2.0063193 -0.29780215 -17.038633 7
-1.9576215 -0.26814428 -17.074833 7
-1.8447986 -0.26221204 -17.08411 6.833333
-1.7429621 -0.25449705 -17.054077 6.8228025
-1.6815796 -0.21789031 -17.087925 7
-1.5444835 -0.27843168 -17.081093 6.4722223
-1.442013 -0.28042394 -17.088547 6.4814816
-1.33222 -0.25955331 -17.093807 7
-1.2238475 -0.25884101 -17.089529 6.5294118
-1.1615806 -0.26634625 -17.096771 6.52
-0.96282947 -0.25741884 -17.095673 6.5
7.3319445 -0.25653788 -17.098476 5.0625
7.4559317 -0.29328817 -17.050537 5.5
7.5066185 -0.2229719 -17.09643 5.3400002
7.6833038 -0.23040445 -17.069134 7
-1.9442927 -0.18516248 -17.077971 7
-1.3938313 -0.17954883 -17.09017 7
-0.6565299 -0.16944474 -17.098732 7
8.8386354 -0.16795534 -17.006054 7
8.9389896 -0.16914758 -17.060711 7
-1.8220295 -0.036151834 -17.025867 6
11.955128 -0.037937339 -17.092854 7
13.255177 -0.045674026 -17.076977 7
-3.4234695 -0.71040702 -16.935703 7
-3.2956898 -0.60137939 -16.994576 6
-3.0468228 -0.63224399 -16.985451 7
-3.9297042 -0.52349389 -16.967535 7
-3.8597727 -0.53960103 -16.963814 6.75
-3.7827168 -0.50725883 -16.964859 7
-3.6604812 -0.54428869 -16.9645 6
-3.4682777 -0.56567734 -16.945938 7
-3.3383529 -0.58409417 -16.962812 7
-3.1207771 -0.59321117 -16.90448 6
-2.9366114 -0.59313011 -16.965956 6
-2.7317533 -0.58920324 -16.959736 6
19.090809 -0.50695604 -16.963602 6
-3.953722 -0.44692948 -16.922136 7
-3.7612116 -0.44461781 -16.99221 7
21.134918 -0.45867449 -16.992659 6
25.029234 -0.43584418 -16.926151 6
-3.9238732 -0.38110164 -16.959831 7
-3.7025945 -0.39751828 -16.983923 7
-3.6784453 -0.30302992 -16.91465 7
-2.4768555 -0.33325529 -16.916866 6.3333335
-2.1478777 -0.32245958 -16.96582 7
-2.0320692 -0.38568911 -16.998001 6
-1.9348803 -0.3204793 -16.921448 7
-3.1389029 -0.26677924 -16.964649 7
-1.9721392 -0.2839469 -16.951796 7
-1.8724473 -0.27450234 -16.969608 6.5384617
8.963582 -0.16868733 -16.950619 7
41.065952 0.092127174 -16.97047 7
-3.4350891 -0.72112769 -16.875751 7
-3.95578 -0.61028314 -16.826777 7
-3.7796459 -0.60811764 -16.881399 7
-3.3833923 -0.60870063 -16.831669 7
-3.9384089 -0.58584952 -16.850933 7
-3.4117596 -0.59526932 -16.835011 6
18.667501 -0.5120858 -16.877361 6
-3.9456887 -0.44147101 -16.832615 7
-3.8715372 -0.49670452 -16.876734 7
-3.1086707 -0.43287876 -16.896709 6.5
23.22822 -0.41878039 -16.808846 6
-3.9470963 -0.36097521 -16.826157 7
-2.3395057 -0.32156271 -16.862192 6.5
-1.9989614 -0.30097166 -16.855934 7
-3.009464 -0.24789664 -16.832613 7
-2.945713 -0.21701467 -16.848005 7
-2.5741363 -0.26379764 -16.859177 7
-1.8242567 -0.21533757 -16.806702 7
41.129959 0.23766153 -16.875462 7
-3.9186993 -0.60770285 -16.742672 7
-3.4557114 -0.63234228 -16.792673 7
-3.941293 -0.54547375 -16.751743 6.4285712
18.217083 -0.51494205 -16.747452 6
-3.9445453 -0.43470386 -16.728664 6.875
23.637053 -0.41681945 -16.793797 6
23.930132 -0.41278982 -16.75235 6
-3.9475734 -0.35579494 -16.735086 7
-2.0130005 -0.30094203 -16.710312 7
-3.1202035 -0.26170501 -16.72105 7
-3.0286102 -0.20385233 -16.703821 7
-2.9845276 -0.2106344 -16.744055 7
-2.5320883 -0.25385505 -16.72534 7
-1.9641513 -0.27441689 -16.714521 7
-1.7945989 -0.21129215 -16.794834 7
-3.0079424 -0.19659375 -16.710629 7
-1.8497798 -0.19430496 -16.704599 7
-1.791821 -0.18361378 -16.792852 7
8.0288153 -0.16479686 -16.743546 7
14.366755 -0.061297465 -16.703466 7
40.990219 0.049487114 -16.75605 7
41.104366 0.077272847 -16.792101 7
41.006371 0.10867646 -16.790817 7
41.08902 0.23726717 -16.750359 7
41.088108 0.30153179 -16.752451 7
-3.1764774 -0.73323649 -16.624046 7
-3.8385715 -0.62433648 -16.654196 7
-3.555994 -0.60526133 -16.639399 7
-3.4196911 -0.64522743 -16.624214 7
-3.9476757 -0.5269013 -16.646357 6.8333335
-3.883204 -0.58747816 -16.669588 6
-3.4389935 -0.58749259 -16.690527 7
17.896448 -0.51712877 -16.646875 6
-3.9480138 -0.45634997 -16.657385 6.3333335
-3.3224266 -0.48455033 -16.651093 7
8.3335819 -0.46006158 -16.651535 6
24.219086 -0.40579951 -16.67886 6
24.304661 -0.40012366 -16.621662 6
26.007864 -0.41285592 -16.613037 6
-3.9399719 -0.34694764 -16.64308 6.9615383
-3.8619764 -0.30420178 -16.642933 7
-3.1202123 -0.31090856 -16.648478 7
-2.5514238 -0.30579901 -16.63534 7
-2.0016365 -0.30036929 -16.619884 7
-3.9348052 -0.23139788 -16.652611 7
-3.6759987 -0.23965588 -16.618391 7
-3.545433 -0.22251938 -16.611374 7
-3.4297802 -0.23638241 -16.636642 7
-3.3076847 -0.21714061 -16.61216 7
-3.2008393 -0.21686047 -16.612339 7
-3.1436827 -0.25570622 -16.643946 7
-3.0458343 -0.22233708 -16.644213 7
-2.9725604 -0.2096099 -16.645565 7
-2.6270843 -0.21476316 -16.617929 7
-2.5546517 -0.2593317 -16.639034 7
-2.4569526 -0.20432419 -16.618347 7
-2.3441913 -0.21188201 -16.618233 7
-2.2649338 -0.2253764 -16.623062 7
-2.1242757 -0.21352312 -16.630329 7
-2.0520897 -0.20688809 -16.633698 7
-1.9570285 -0.25330371 -16.658361 7
-1.8422474 -0.21055038 -16.62879 7
-3.9486287 -0.11009476 -16.660324 6
-2.9702988 -0.19959508 -16.650478 7
-2.7651317 -0.19712646 -16.691063 7
-2.628711 -0.1973317 -16.639801 7
-2.5069301 -0.19659595 -16.637089 7
-2.3346303 -0.18868956 -16.619318 7
-2.1980097 -0.19503817 -16.642731 7
-1.9473467 -0.18913159 -16.655951 7
-1.8326433 -0.18595062 -16.643751 7
-1.7806215 -0.19902489 -16.671658 7
8.1225872 -0.16504407 -16.661873 7
14.308533 -0.060288835 -16.644417 7
40.93898 0.03468205 -16.691261 7
41.029808 0.086821057 -16.647991 7
-3.9543107 0.1852161 -16.648415 7
41.02784 0.23763354 -16.676029 7
-2.535347 -0.85279447 -16.581715 6
-0.11746538 -0.82468247 -16.50091 6
-3.3254571 -0.72779566 -16.565554 6
-3.855772 -0.61047512 -16.57513 7
-3.444339 -0.6454733 -16.550495 7
-3.9394705 -0.5609557 -16.524088 7
-3.4474237 -0.54673767 -16.500101 6
17.517719 -0.52207828 -16.539148 6
-3.9431496 -0.4454619 -16.549482 6.8571429
-3.9520342 -0.3554177 -16.540411 6.7691197
-3.849381 -0.30812961 -16.526085 6.6111112
-2.6366858 -0.30238369 -16.587471 7
-1.9947262 -0.30005136 -16.574575 7
-3.9551988 -0.2440573 -16.575897 7
-3.8459053 -0.25935611 -16.582579 6.8684211
-3.5612297 -0.21240036 -16.564497 7
-3.3555279 -0.21059097 -16.542997 7
-3.268734 -0.20737454 -16.568592 7
-3.1250122 -0.25295103 -16.566751 7
-3.0468392 -0.20884755 -16.569143 7
-2.6643615 -0.21179858 -16.589838 7
-2.4534788 -0.2112391 -16.575129 7
-2.0581763 -0.21024384 -16.586216 7
-1.9692137 -0.27383429 -16.574152 7
-2.9999888 -0.19519685 -16.582598 7
-2.6527939 -0.19289353 -16.566418 7
-2.5238979 -0.19098651 -16.556334 7
-2.4705529 -0.19089337 -16.542074 7
-2.2792861 -0.18984458 -16.558643 7
-2.1568868 -0.18244207 -16.570318 7
-1.9714775 -0.18459302 -16.593466 7
-1.8616973 -0.17785454 -16.58914 7
8.2677307 -0.16583967 -16.591585 7
8.3228798 -0.16609551 -16.555801 7
-3.9548457 0.182547 -16.591194 7
40.985176 0.11023587 -16.537283 7
41.006302 0.23693794 -16.560738 7
-0.31704211 -0.82322979 -16.489727 6
-3.4220829 -0.70239174 -16.46447 7
-3.9525356 -0.60946238 -16.489628 7
-3.8952141 -0.62242329 -16.4027 7
-3.9344132 -0.53900164 -16.460287 6.5999999
-3.4331779 -0.58642054 -16.491333 7
17.437511 -0.51758415 -16.463888 6
-3.9351459 -0.45081964 -16.459858 6.875
26.430254 -0.40100068 -16.44125 6
-3.9408281 -0.35354793 -16.456329 6.9249086
14.632786 -0.34936333 -16.487659 6
-3.9398069 -0.22747545 -16.43223 7
-3.8500755 -0.22184709 -16.494293 7
7.594852 -0.15397578 -16.420895 7
41.010033 0.080441728 -16.494154 7
44.73489 0.071807146 -16.45591 7
41.123962 0.22950476 -16.431124 7
-3.0018892 -0.83580136 -16.350416 6
-3.4187946 -0.64224595 -16.375158 7
-3.9326942 -0.51464772 -16.335257 6.6666665
-3.77879 -0.5883584 -16.373299 7
17.169416 -0.5194152 -16.362556 6
-3.9409995 -0.44112569 -16.34436 6.8571429
-3.9421158 -0.35051769 -16.353077 6.8901095
-3.9423761 -0.25754952 -16.340847 7
7.6429219 -0.15381558 -16.351784 7
41.126038 0.081610486 -16.334105 7
-3.9439285 0.17290419 -16.378695 7
41.105988 0.23736128 -16.383001 7
-3.8926296 -0.60375571 -16.256413 7
-3.4298599 -0.65651011 -16.224316 7
-3.9308615 -0.54239774 -16.246506 7
7.6444449 -0.43302724 -16.236788 6
-3.9305346 -0.34670293 -16.252386 6.6944442
-3.8971443 -0.34290427 -16.201952 6.4375
26.919357 -0.3881498 -16.238531 6
-3.9353144 -0.25930959 -16.25186 7
41.144482 0.09526971 -16.230213 7
41.211117 0.079175815 -16.266907 7
41.144798 0.1118913 -16.211395 7
41.1959 0.3048594 -16.292305 7
-3.1637154 -0.72938317 -16.150574 7
5.7799206 -0.71428615 -16.145851 7
-3.7904034 -0.60709321 -16.187346 7
-3.4015026 -0.60722089 -16.16506 7
-3.3962259 -0.6767531 -16.101919 6
8.8723907 -0.68909597 -16.187012 7
9.2054539 -0.68955117 -16.100685 7
-3.9307163 -0.54490274 -16.143452 6.75
-3.4284363 -0.5922333 -16.168293 7
16.708601 -0.52062613 -16.156544 6
-3.9235005 -0.44724259 -16.138964 6.9333334
-3.4798086 -0.4740721 -16.158432 7
7.6383624 -0.43138769 -16.182606 6
-3.9258869 -0.36007658 -16.132074 6.9047618
-3.8902769 -0.37540409 -16.127073 6.8333335
27.016882 -0.38576251 -16.198183 6
27.253006 -0.38108414 -16.109848 6
-3.9353812 -0.21089125 -16.122477 7
-3.8798275 -0.2132147 -16.162674 7
-3.9265673 -0.11743785 -16.149719 6
-3.8817847 -0.19965547 -16.144287 7
7.6681819 -0.15278187 -16.17824 7
41.204494 0.080801174 -16.105453 7
-3.9257729 0.16173375 -16.13028 7
41.193451 0.23768809 -16.10733 7
-3.3822227 -0.71875876 -16.046516 6
-3.9476986 -0.60857868 -16.0898 7
-3.424674 -0.69369173 -16.042656 7
-3.3995578 -0.63169181 -16.010496 6
-3.9227428 -0.54043746 -16.076164 6.5
-3.7286806 -0.57692277 -16.084396 6
-3.413311 -0.58408821 -16.09763 7
16.34477 -0.53307343 -16.090294 6
-3.9225488 -0.45758495 -16.035629 7
-3.3417685 -0.47032005 -16.081705 7
-3.9319675 -0.34848699 -16.055132 6.8263669
-3.9159799 -0.23015222 -16.03323 7
42.474487 0.04742986 -16.02528 7
42.766979 0.033780903 -16.084641 7
42.378983 0.20247585 -16.035522 7
-3.155777 -0.72745919 -15.914877 7
-3.4112682 -0.63706791 -15.951565 7
-3.394393 -0.67263341 -15.932598 6
-3.9215362 -0.53272587 -15.919736 7
15.982573 -0.53737801 -15.937071 6
-3.9429481 -0.41868132 -15.95109 6.8000002
-3.897594 -0.48214999 -15.955722 6.5
-3.924377 -0.35572538 -15.959589 6.9485717
-3.8916805 -0.32871994 -15.928634 6.4933333
27.655132 -0.3751415 -15.975277 6
-3.9138477 -0.24725452 -15.937281 7
-3.8818326 -0.19737057 -15.968056 7
41.032043 0.086113885 -15.900767 7
42.810234 0.047948986 -15.960096 7
-3.9182289 0.15501374 -15.982874 7
40.946899 0.20102887 -15.937437 7
41.138222 0.23013657 -15.971735 7
44.794662 0.20757328 -15.914718 7
-3.286309 -0.75084049 -15.899697 7
-3.0763197 -0.78672218 -15.888264 6
2.2973847 -0.78056949 -15.864062 6
-3.8754749 -0.6009981 -15.889431 7
-3.6714954 -0.60169572 -15.800271 7
-3.9192214 -0.51907986 -15.841585 6.5
-3.7326899 -0.55198276 -15.861698 6
-3.4096107 -0.58297098 -15.84922 7
15.587275 -0.55063993 -15.842132 6
-3.9092598 -0.48024839 -15.861271 6.7222223
-3.9225826 -0.3419365 -15.847938 6.7411323
27.787638 -0.36798984 -15.872843 6
-3.9141948 -0.24700031 -15.835685 7
-3.86956 -0.20574725 -15.835961 7
-3.9137204 -0.12220145 -15.834095 6
15.194695 -0.032067619 -15.839594 7
40.988571 0.081011221 -15.846167 7
41.012436 0.097488552 -15.802061 7
-3.9116805 0.1471642 -15.812086 7
41.016312 0.11408645 -15.853826 7
41.112381 0.23725662 -15.824438 7
-3.4364026 -0.64135969 -15.768646 6.5
-3.3947477 -0.64804769 -15.793148 7
-3.9251091 -0.56001675 -15.755725 7
15.17267 -0.56248659 -15.710711 6
-3.9137666 -0.44306076 -15.74352 7
-3.8583474 -0.46474159 -15.73373 6.4594593
7.2201037 -0.45059144 -15.763365 6
-3.9197605 -0.34141517 -15.740648 6.7019091
-3.8930011 -0.33792615 -15.739832 7
15.18725 -0.03132762 -15.764828 7
15.266119 -0.031211466 -15.723457 7
41.034512 0.073645964 -15.748639 7
42.052841 0.068553507 -15.727537 7
-3.9390221 -0.60769248 -15.692677 7
-3.9143529 -0.53705233 -15.69555 7
-3.3045785 -0.55454862 -15.699535 7
-3.9195969 -0.45630655 -15.680873 6.8000002
-3.884043 -0.46719533 -15.631666 6
-3.9231834 -0.35078931 -15.649738 6.8999996
-3.8922265 -0.33373788 -15.66347 6.8388886
15.440024 -0.32521838 -15.611516 6
-3.905973 -0.23692901 -15.639176 7
-3.8750839 -0.19272043 -15.619907 7
7.1739545 -0.17673919 -15.63151 7
42.033699 0.084997103 -15.63012 7
42.084404 0.10319991 -15.648312 7
41.604046 0.20758364 -15.627275 7
-3.1334896 -0.72394025 -15.516341 7
3.0511332 -0.76956171 -15.590755 6
-3.3866799 -0.60533816 -15.55706 6.5
-3.9111931 -0.53531426 -15.551578 6.6666665
-3.8903217 -0.59644401 -15.527979 7
-3.39151 -0.58137536 -15.591164 7
-3.9254863 -0.43273365 -15.553653 6.5808082
-3.9192889 -0.35819724 -15.539433 6.8333335
-3.8901782 -0.33515266 -15.567133 6.7386365
-3.9090695 -0.26466551 -15.531199 7
41.060814 0.082965896 -15.520354 7
-3.9069293 0.135212 -15.555498 7
42.017067 0.11399853 -15.577209 7
-3.0668397 -0.74327636 -15.490071 6
3.422636 -0.7632702 -15.429708 6
-3.4186716 -0.62958181 -15.443622 7
-3.9108524 -0.51615393 -15.469969 7
-3.6254044 -0.59937042 -15.424353 7
-3.3959465 -0.5822075 -15.431856 7
14.802824 -0.56148213 -15.464527 6
-3.9052227 -0.48925918 -15.428207 6.5
-3.8880236 -0.44711208 -15.434026 6.727273
19.513086 -0.49790025 -15.430105 5
20.106764 -0.48640245 -15.477348 5
20.492317 -0.47640574 -15.469017 5
20.916376 -0.4646228 -15.434706 5
-3.9451115 -0.38047746 -15.40729 6.4848485
-3.8954601 -0.33250824 -15.450541 7
-3.9195418 -0.25117493 -15.466476 6.863636
-3.892405 -0.23087955 -15.447753 7
42.06617 0.077649966 -15.47146 7
42.118996 0.046723351 -15.43022 7
3.6776605 -0.76064187 -15.328074 6
-3.9282112 -0.60688114 -15.313684 7
-3.4160244 -0.6678853 -15.392624 6.5
-3.3919792 -0.67223203 -15.392008 6.5
-3.9110217 -0.52721405 -15.343369 7
14.600931 -0.5619747 -15.335278 6
18.89913 -0.50562996 -15.306993 5
19.309603 -0.500902 -15.396811 5
-3.9066682 -0.46629518 -15.342283 7
-3.8896515 -0.44401109 -15.342853 6.6666665
21.101706 -0.45731813 -15.399313 5
21.273373 -0.45426732 -15.386688 5
21.916285 -0.44888645 -15.353403 5
22.097208 -0.44576126 -15.323816 5
-3.9139924 -0.3601622 -15.357096 6.8874998
-3.8869336 -0.33146879 -15.342669 6.6432748
-3.9001603 -0.19803308 -15.305282 7
42.04306 0.086718097 -15.36996 7
42.110279 0.078953877 -15.352182 7
41.747078 0.21176563 -15.389221 7
-3.1547379 -0.72239184 -15.275347 6.5
3.5979309 -0.75382602 -15.289255 6
-3.390135 -0.60144144 -15.214794 6
-3.9230328 -0.59274405 -15.248806 7
-3.8992615 -0.59294409 -15.276836 7
-3.5637176 -0.55035639 -15.281279 6
-3.3912754 -0.5815348 -15.266959 7
18.58618 -0.50743604 -15.212344 5
-3.9145005 -0.47078738 -15.254044 6.6666665
-3.8966284 -0.43965113 -15.236033 6.6692243
22.499102 -0.44263238 -15.273602 5
-3.9169331 -0.3380056 -15.259346 7
-3.8870819 -0.3469415 -15.258602 6.9210525
-3.9311762 -0.21608049 -15.246743 7
-3.8850591 -0.24316449 -15.221743 6.9375
42.038303 0.12256844 -15.235802 7
41.702225 0.20653339 -15.291751 7
-3.3826904 -0.7100783 -15.11977 7
3.8333268 -0.74792653 -15.157286 6
-3.4177303 -0.62740219 -15.115448 7
-3.9117231 -0.56161761 -15.169799 7
-3.8744442 -0.52453673 -15.139877 6.3333335
14.353018 -0.56270218 -15.171826 6
-3.9030285 -0.44802487 -15.137335 7
-3.8942947 -0.49721766 -15.171802 7
22.720407 -0.43229121 -15.176182 5
22.984455 -0.42800063 -15.108505 5
-3.9143145 -0.35551167 -15.164848 6.7752748
-3.8852036 -0.33008167 -15.153101 6.8785715
-3.8948026 -0.249314 -15.150091 7
-3.8809185 -0.15925404 -15.147953 6.5
-3.8960874 0.01724156 -15.170428 6.5999999
42.048149 0.067124605 -15.142515 7
-3.4169235 -0.68641496 -15.071363 7
-3.3692071 -0.64938974 -15.013498 6.5
-3.9073391 -0.5208962 -15.074183 7
-3.8976498 -0.59756362 -15.082127 7
-3.6170502 -0.59871167 -15.072955 7
-3.3993912 -0.57960951 -15.010669 7
14.066603 -0.57019573 -15.046997 6
18.079285 -0.50752991 -15.009871 5
-3.8901124 -0.42191318 -15.044566 7
6.5992608 -0.43792462 -15.031907 6
-3.9336202 -0.36868376 -15.035273 6.5172415
-3.8874588 -0.31238133 -15.028177 6.7249999
-3.8876984 -0.23030055 -15.059194 7
6.5882783 -0.29383647 -15.049144 6.5714288
6.5376925 -0.18472549 -15.049255 7
41.80616 0.20892578 -15.075629 7
41.950539 0.21806291 -15.023117 7
-3.3709714 -0.71091104 -14.941067 6.5
-3.1287003 -0.72038537 -14.968948 7
4.1635056 -0.73949218 -14.961584 6
-3.9153881 -0.60612142 -14.927326 7
-3.6867809 -0.60146087 -14.999918 7
-3.386095 -0.6468662 -14.971817 6
-3.9111452 -0.5227536 -14.974722 7
-3.8945041 -0.58242261 -14.932533 7
-3.3739109 -0.579983 -14.941376 7
-3.9079843 -0.46635634 -14.939237 6.8000002
-3.8926201 -0.46288905 -14.976812 6.8900003
-3.9117761 -0.34164238 -14.958405 6.7470932
-3.8823848 -0.32210147 -14.940979 6.7003684
-3.892446 -0.19209905 -14.918979 7
6.7455716 -0.18605724 -14.95838 7
42.062073 0.089487627 -14.933638 7
42.044189 0.15042008 -14.925117 7
41.86116 0.21780732 -14.969551 7
41.932701 0.21043949 -14.940247 7
-0.21432042 -0.80406302 -14.803808 5
-0.0078238249 -0.8076368 -14.828399 5
4.4617596 -0.73678178 -14.822723 6
-3.4170628 -0.68540692 -14.842448 7
-3.3819103 -0.62389171 -14.855823 7
-3.9078712 -0.57530248 -14.844232 7
-3.4823093 -0.59315264 -14.867631 7
13.718066 -0.57272142 -14.814947 6
17.744198 -0.50561106 -14.840296 5
-3.9003539 -0.45173779 -14.840523 7
-3.8919246 -0.44102064 -14.867095 6.5047622
29.186237 -0.40959424 -14.832959 7
-3.9087598 -0.32295525 -14.873315 7
-3.8842275 -0.35107863 -14.862303 7
-3.908977 -0.23889586 -14.880445 7
-3.8864372 -0.26604679 -14.84308 6.7272725
15.814817 -0.021272963 -14.846358 7
42.078655 0.11740837 -14.872465 7
-2.174222 -0.82963026 -14.71464 5
-1.8395942 -0.82604647 -14.765518 5
0.33534551 -0.79955143 -14.766314 5
-3.3911705 -0.67435658 -14.798391 7
-3.8950202 -0.51673716 -14.737083 6.3333335
-3.37677 -0.59147644 -14.725057 7
-3.8884535 -0.46127737 -14.7271 6.8333335
-3.9242482 -0.38021204 -14.767082 6.875
-3.8774688 -0.34609756 -14.753555 6.8072724
-3.8809419 -0.2491508 -14.771933 6.8621216
-3.8852699 -0.1412755 -14.718522 6
-3.8917334 -0.015168197 -14.7416 6.5294118
42.105526 0.080233857 -14.756704 7
42.051987 0.22224706 -14.771688 7
42.645771 0.22421968 -14.719402 7
-2.4034495 -0.83097947 -14.663533 5
4.6230221 -0.72705072 -14.662314 6
-3.4030311 -0.66150373 -14.634014 6.5
-3.3691516 -0.63301837 -14.60833 6.5
-3.8729725 -0.59261167 -14.691805 7
-3.3809242 -0.57956988 -14.697495 7
13.333385 -0.58043391 -14.600775 6
13.595324 -0.57080001 -14.698982 6
17.350704 -0.5099476 -14.66787 5
-3.8855042 -0.4629817 -14.633255 6.75
-3.9203415 -0.30473819 -14.661819 6.5714288
-3.8867853 -0.328394 -14.658659 6.8174601
-3.8671341 -0.25318423 -14.687079 6.8000002
42.505615 0.17385365 -14.624151 7
42.077988 0.21897374 -14.604975 7
42.115852 0.22078535 -14.655869 7
44.813942 0.21895312 -14.698902 7
44.777809 0.39725882 -14.627069 7
-3.3848953 -0.70806491 -14.582275 7
4.8605332 -0.72159231 -14.506754 6
-3.9030647 -0.60551703 -14.557294 7
-3.4152622 -0.62592435 -14.564904 7
-3.3670795 -0.64227355 -14.555061 6.3333335
-3.9020548 -0.51945955 -14.581442 7
-3.8899736 -0.57096642 -14.511886 7
-3.7084992 -0.54939938 -14.522694 6
-3.6079633 -0.54750514 -14.536926 6
17.041151 -0.51182705 -14.503382 5
-3.8872235 -0.44826964 -14.547437 6.8333335
-3.9105699 -0.32050532 -14.554707 6.75
-3.8848484 -0.3192417 -14.516768 6.9000001
-3.8637958 -0.29170746 -14.525318 6.5294118
-3.8849509 -0.18620534 -14.530935 7
5.8255215 -0.17917477 -14.516095 7
42.347446 0.090726659 -14.596188 7
42.094254 0.1758962 -14.541588 7
44.799232 0.33154476 -14.548114 7
-3.1218243 -0.71698958 -14.423242 7
2.0230227 -0.78589183 -14.413958 5
-3.3956299 -0.68291128 -14.452536 7
-3.9031506 -0.592134 -14.495294 7
-3.3730793 -0.59046447 -14.423585 7
13.093879 -0.58411074 -14.44906 6
-3.8895855 -0.45514756 -14.439434 6.878788
5.833313 -0.41087565 -14.467892 6
19.649998 -0.48665565 -14.420996 4
19.999008 -0.47270817 -14.413827 4
20.165411 -0.47997326 -14.478214 4
20.247433 -0.4703604 -14.436256 4
20.627001 -0.46341997 -14.434225 4
21.007126 -0.45667773 -14.40946 4
-3.9118435 -0.35969073 -14.455462 6.7945304
-3.8789551 -0.34797248 -14.457361 6.907692
-3.8708882 -0.2766116 -14.447108 6.5931506
5.8542643 -0.28267461 -14.487557 6.5555553
6.0907621 -0.18150827 -14.486122 7
6.101613 -0.18089765 -14.421358 7
42.143044 0.092462197 -14.411536 7
-3.3694592 -0.70666438 -14.384039 7
2.023705 -0.77465969 -14.335518 5
-3.3738346 -0.63474071 -14.344561 7
-3.8681071 -0.5786953 -14.371715 7
-3.3700829 -0.57660425 -14.352892 7
16.764828 -0.52033871 -14.397286 5
16.86837 -0.51046163 -14.3865 5
-3.8808448 -0.45373425 -14.318509 6.9157896
19.4519 -0.48411125 -14.357738 4
-3.9249868 -0.39814362 -14.351791 7
-3.8782401 -0.3513034 -14.372116 6.9333329
-3.8884325 -0.25836602 -14.335457 6.7280698
-3.8854091 -0.035900392 -14.334274 6.5
-3.8745089 0.076668926 -14.309778 7
42.14624 0.11970827 -14.343525 7
42.100349 0.22950879 -14.310121 7
2.3930221 -0.77506334 -14.230081 5
5.1867919 -0.71286339 -14.271339 6
-3.8729591 -0.60391474 -14.240125 7
-3.4119244 -0.62540072 -14.239695 7
-3.3618414 -0.65185505 -14.222049 6
-3.8640273 -0.55763882 -14.248376 6.6666665
-3.6394565 -0.53850758 -14.23243 6
-3.5191116 -0.53598177 -14.243807 6
-3.3771877 -0.57826287 -14.213445 7
16.600048 -0.51546484 -14.24824 5
-3.875246 -0.49078172 -14.208124 7
19.019081 -0.48712188 -14.244228 4
-3.8815975 -0.3167716 -14.225583 6.8125
-3.865339 -0.15078494 -14.203924 6
42.188156 0.21737058 -14.278679 7
5.2768188 -0.70740479 -14.172614 6
-3.8935585 -0.60515809 -14.144423 7
-3.3766174 -0.61591649 -14.109037 7
-3.8802006 -0.55799043 -14.134785 7
-3.3607426 -0.5886746 -14.15946 7
12.579781 -0.59194142 -14.104912 6
-3.8777661 -0.44095632 -14.151789 7
18.618383 -0.49125594 -14.1157 4
-3.9118123 -0.34630686 -14.162882 6.75
-3.8788838 -0.35490453 -14.134721 6.75
-3.8634455 -0.26896641 -14.157216 6.6111107
42.145763 0.093998328 -14.148439 7
42.155018 0.21529898 -14.168596 7
-3.0519671 -0.77281147 -14.025093 5
-2.9743881 -0.74281162 -14.061231 7
2.775106 -0.76414317 -14.017776 5
-3.3536377 -0.64385581 -14.062174 6.5
-3.8916683 -0.5920319 -14.061322 7
-3.7891424 -0.56976902 -14.055019 5
16.196545 -0.5284602 -14.065241 5
-3.8806846 -0.44553027 -14.040771 6.8238091
-3.9098599 -0.3448987 -14.087453 6.8333335
-3.8810425 -0.33276156 -14.058523 6.8738208
-3.8697474 -0.2886993 -14.07312 6.4785714
-3.8838551 -0.054895468 -14.020933 6.4615383
42.146782 0.22047873 -14.064295 7
-3.3626423 -0.70503378 -13.985128 7
-3.3781681 -0.64689928 -13.951497 6.6666665
-3.8566043 -0.5382635 -13.961563 6.3333335
-3.7564886 -0.57273853 -13.91354 6
-3.6261654 -0.5825634 -13.997272 7
16.011364 -0.52756447 -13.915732 5
-3.8797524 -0.47163987 -13.935304 7
5.4899583 -0.40769097 -13.980463 6
18.257677 -0.49485606 -13.971591 4
-3.9059277 -0.38491502 -13.9567 6.8387094
-3.8668015 -0.34540927 -13.965077 6.7777781
5.2450166 -0.39900988 -13.993683 6
-3.89012 -0.28431508 -13.965871 6.5666666
5.2602239 -0.25207093 -13.921088 6.6666665
5.463459 -0.23819214 -13.928406 6.75
5.1932006 -0.1800167 -13.955411 7
42.118843 0.12125385 -13.990187 7
-3.3086934 -0.70913941 -13.802217 5.875
-3.1020851 -0.71330506 -13.882298 7
3.0894494 -0.75715452 -13.839607 5
-3.3453288 -0.62265217 -13.827322 6
-3.8408515 -0.56990975 -13.851346 5.6666665
-3.7902491 -0.56077826 -13.863238 5
-3.3615279 -0.57867408 -13.836549 6.5
12.30719 -0.59211487 -13.864831 6
-3.8766365 -0.47542232 -13.846232 7
17.90666 -0.49922222 -13.809341 4
-3.9050915 -0.3402127 -13.833529 6.25
-3.8725929 -0.32890442 -13.840453 6.75
-3.8676674 -0.27963737 -13.852744 6.5531917
-3.858727 -0.18100372 -13.865717 7
5.5294561 -0.18223733 -13.899587 7
42.142059 0.095486566 -13.889667 7
42.129856 0.22630565 -13.851232 7
-3.0658684 -0.9354232 -13.740987 7
-2.967504 -0.70207244 -13.762872 7
-3.8888035 -0.60510933 -13.78416 7
-3.3595185 -0.64420664 -13.759341 6.5999999
5.8653841 -0.69689494 -13.761909 6
-3.8788257 -0.51357484 -13.772159 7
15.863557 -0.52558798 -13.779005 5
-3.8726282 -0.44791439 -13.755842 6.9187498
-3.9022193 -0.31746304 -13.701896 7
-3.8707736 -0.3416329 -13.741875 6.6428571
29.274952 -0.35970822 -13.745359 7
-3.8759553 -0.29852366 -13.724701 6.5
42.164635 0.09639211 -13.714005 7
42.156818 0.12339222 -13.756585 7
42.15781 0.22857538 -13.738844 7
-3.351944 -0.70354843 -13.646837 7
3.2566586 -0.74751765 -13.69238 5
-3.3946209 -0.62424779 -13.68255 7
-3.8560214 -0.56476718 -13.668047 5.8571429
-3.3394728 -0.55163103 -13.647479 5.5
11.992338 -0.59972662 -13.670202 6
-3.8863292 -0.44722262 -13.627048 7
-3.9026031 -0.39910027 -13.621007 7
-3.8775897 -0.33786997 -13.64982 7
-3.8691628 -0.28177989 -13.64758 6.5207744
34.592331 0.1138698 -13.62845 7
44.516994 0.14349611 -13.63959 7
42.897564 0.24123304 -13.630228 7
-3.0949173 -0.7114746 -13.573535 7
3.4960475 -0.74708611 -13.572717 5
-3.3618708 -0.64393795 -13.53266 7
-3.8586302 -0.55487168 -13.545965 6
-3.3415804 -0.57449728 -13.558432 6.5
15.473884 -0.53904217 -13.561802 5
-3.8708758 -0.46276957 -13.56999 6.8642855
-3.9034185 -0.39457822 -13.527414 7
-3.8888869 -0.35742855 -13.556267 6.7607145
-3.8612857 -0.27761605 -13.565759 6.4980392
42.174309 0.14952795 -13.535143 7
42.161034 0.21740553 -13.511095 7
42.860111 0.2459479 -13.556763 7
44.668446 0.24509862 -13.584085 7
-3.0566711 -0.91459543 -13.411902 7
-3.3311753 -0.67149949 -13.403481 6
-3.881161 -0.5373807 -13.430835 7
-3.7863598 -0.58649141 -13.456284 7
-3.355402 -0.56033337 -13.456997 6
-3.9038348 -0.44342351 -13.472357 6.4444447
-3.8782368 -0.48236442 -13.480474 7
-3.874999 -0.31883967 -13.471747 6.8727274
-3.8844934 -0.28177285 -13.431658 6.5
44.813446 0.089578316 -13.484835 7
34.539124 0.11427584 -13.454406 7
44.538269 0.14566506 -13.472926 7
42.194218 0.22329047 -13.474787 7
42.536621 0.23106202 -13.418336 7
44.584709 0.22190754 -13.452663 7
44.603714 0.28206396 -13.483839 7
3.807035 -0.73907983 -13.343437 5
-3.8824272 -0.60516202 -13.378281 7
-3.3269954 -0.62763685 -13.383735 6
-3.8569837 -0.54495984 -13.321047 5.5
-3.340652 -0.56795335 -13.348302 6.5
-3.904891 -0.48506105 -13.396096 7
-3.863869 -0.45213923 -13.342776 7
-3.8711362 -0.34480232 -13.3398 6.875
-3.8579071 -0.270574 -13.322192 6.5246911
44.821384 0.092508882 -13.343726 7
44.824223 0.14681402 -13.341444 7
44.676552 0.22703694 -13.392733 7
44.77047 0.23171893 -13.37552 7
44.808907 0.28260848 -13.315239 7
44.813568 0.33623579 -13.376572 7
44.785889 0.40285295 -13.379095 7
-3.337965 -0.70187533 -13.25174 7
-3.128727 -0.71145278 -13.266211 7
-3.3605862 -0.62690264 -13.28868 7
11.493369 -0.60444373 -13.251309 6
-3.8505986 -0.57881397 -13.271688 6.3333335
-3.3442154 -0.58679426 -13.299949 7
-3.8709655 -0.45091286 -13.240506 6.7944169
-3.8774228 -0.3293376 -13.268388 6.9340658
-3.8487675 -0.2849251 -13.274266 6.5
34.67231 0.11386542 -13.278736 7
44.819992 0.11963466 -13.29913 7
44.815231 0.22300029 -13.208308 7
44.829681 0.40369302 -13.245959 7
2.3695993 -0.76317453 -13.136934 4
3.9853473 -0.72804058 -13.149208 5
-3.3640404 -0.67700541 -13.142488 7
-3.863023 -0.55753845 -13.151868 6.3333335
-3.6531792 -0.58040261 -13.130573 7
-3.3341484 -0.57248282 -13.13606 7
5.1464453 -0.51978183 -13.127728 6.4000001
-3.8713236 -0.46348584 -13.155271 7
-3.8768814 -0.38247535 -13.165489 7
29.327499 -0.38519567 -13.194092 7
-3.8578072 -0.2804687 -13.166467 6.5555553
44.794395 0.091152117 -13.196566 7
44.822197 0.25373462 -13.148787 7
44.816929 0.33687925 -13.195782 7
44.822872 0.40416723 -13.11167 7
2.4695158 -0.76258487 -13.087152 4
-3.878149 -0.60528374 -13.099281 7
-3.3176236 -0.62681305 -13.062673 6
6.6252842 -0.67301255 -13.050243 6
-3.8565035 -0.53436208 -13.038626 6.5
-3.3215387 -0.57201272 -13.054186 6.5
-3.8631833 -0.45957285 -13.052473 6.7692308
-3.8725998 -0.33654952 -13.058785 6.84058
5.2311659 -0.39163607 -13.06204 7
-3.8611994 -0.29105654 -13.044434 6.5086207
34.51091 0.11469308 -13.050076 7
44.78299 0.15038234 -13.073173 7
43.748848 0.21455447 -13.001024 7
44.788139 0.25256637 -13.080601 7
44.804008 0.23008522 -13.060286 7
-3.0067482 -0.88700312 -12.999909 7
-3.3483124 -0.70170689 -12.986004 7
-3.2591348 -0.72631615 -12.982355 5.7777777
-3.1323624 -0.71022195 -12.956489 7
2.6462722 -0.75894254 -12.976609 4
4.2113924 -0.72564834 -12.98621 5
-3.8629112 -0.60485947 -12.96315 7
-3.3416939 -0.67542458 -12.910016 7
-3.8576698 -0.56765908 -12.949111 7
-3.3300667 -0.59977365 -12.991248 7
-3.0283709 -0.56061769 -12.912428 7
-3.8613524 -0.44469076 -12.951694 6.8888888
-3.8634 -0.34238577 -12.95346 6.9634147
44.830467 0.092908211 -12.935942 7
44.820724 0.12104177 -12.905832 7
44.76635 0.23238701 -12.938979 7
44.810993 0.3377564 -12.924526 7
44.824638 0.40485618 -12.932861 7
-3.3313141 -0.62348562 -12.85783 6.5
-3.0163956 -0.68650079 -12.807513 7
-2.9960151 -0.60526085 -12.811069 6
-3.8665257 -0.51024771 -12.82122 7
-3.0164387 -0.56347877 -12.847728 6
-2.9879348 -0.5679208 -12.824884 5.25
-3.8411112 -0.45152578 -12.862914 7
-3.316062 -0.41973639 -12.809961 7
-3.013737 -0.45455754 -12.847 6.25
-2.9867585 -0.44492513 -12.824286 6
-3.8592904 -0.37119716 -12.87921 7
-3.7996283 -0.38401732 -12.835081 7
-3.5212507 -0.31289756 -12.864972 7
-3.3848643 -0.3497946 -12.824179 7
-3.277637 -0.37134326 -12.825056 7
-3.0139787 -0.33920908 -12.837232 6.3333335
-2.9781842 -0.35378188 -12.830516 6
29.309343 -0.36086753 -12.851508 7
-3.00313 -0.2835691 -12.810199 7
-2.9930613 -0.27720883 -12.82084 7
-3.0181129 -0.15662624 -12.832493 6.6666665
-2.9810715 -0.17909187 -12.814332 7
-2.995806 0.026109681 -12.810213 7
44.81488 0.2527734 -12.839055 7
2.9331064 -0.75548005 -12.794685 4
-3.0197659 -0.63771665 -12.749241 6
-2.9945827 -0.64115006 -12.738756 6
7.0760741 -0.6713497 -12.739283 6
-3.0166821 -0.53540319 -12.750783 6.3571429
-2.9833457 -0.57044536 -12.75452 6.4000001
-3.1541634 -0.46502978 -12.772688 7
-3.0091052 -0.44247395 -12.738114 6.5625
-2.9912965 -0.45502567 -12.769267 6.5999999
-3.8601549 -0.37575921 -12.792971 6.4285712
-3.0157025 -0.3476347 -12.755013 6.5833335
-2.9829309 -0.35242647 -12.742847 6.6666665
4.8193297 -0.33009571 -12.717989 6
-3.0168395 -0.27909663 -12.744527 7
-2.9958053 -0.2450923 -12.752131 7
-3.0094004 -0.18627486 -12.738503 7
-2.9855137 -0.16958821 -12.7578 7
4.7869186 -0.1322937 -12.765172 7
44.840294 0.093453482 -12.711503 7
44.787144 0.25736433 -12.740469 7
44.839325 0.22548829 -12.722625 7
-3.0427589 -0.70517123 -12.646049 7
-3.0238662 -0.67131883 -12.648899 6.5
-3.0126324 -0.55223554 -12.63926 6.5833335
-2.9984074 -0.55127239 -12.670783 5.6666665
14.411972 -0.56715518 -12.609219 7
-3.0130594 -0.44589913 -12.655705 6.4960313
-2.9964123 -0.44723946 -12.614896 7
-3.0126219 -0.35635543 -12.662433 6.7873492
-2.9811406 -0.33554292 -12.668527 6.2944379
29.415932 -0.38766503 -12.612605 7
-3.0127766 -0.25794533 -12.642926 6.8809524
-2.991457 -0.26539797 -12.662843 6.6363635
4.8145471 -0.20229131 -12.662247 6.6428571
-3.0135219 -0.19282673 -12.646107 7
-2.9936564 -0.15208621 -12.680167 7
-3.005753 -0.067155443 -12.604002 6.483871
44.81768 0.12200823 -12.620584 7
44.823421 0.22422199 -12.618073 7
44.82386 0.33867657 -12.650843 7
44.826286 0.405812 -12.671794 7
-2.9611206 -0.85942 -12.583103 7
-3.0169387 -0.63242662 -12.552118 6.2115383
-3.0137939 -0.57710582 -12.540252 7
-2.9947281 -0.57477719 -12.591592 7
-3.0122137 -0.43310714 -12.552966 6.8452377
-2.9722061 -0.43304536 -12.551902 6.8958335
-3.0121474 -0.34589991 -12.569639 6.395638
-2.9932134 -0.34403148 -12.556495 6.6507936
29.296728 -0.3611151 -12.554647 7
-3.0118887 -0.27479857 -12.542497 6.9342108
-2.983351 -0.26741269 -12.53479 6.8425927
4.922349 -0.13119918 -12.547969 7
44.844971 0.093976736 -12.586352 7
34.529354 0.11475749 -12.507816 7
44.819759 0.25769043 -12.558762 7
-3.0330276 -0.70384294 -12.413892 7
-3.0432816 -0.61096746 -12.494486 7
-3.0108941 -0.55907416 -12.484089 7
-2.9924796 -0.54083538 -12.453161 6.5
-3.0039752 -0.45632541 -12.490846 6.5
-2.9608479 -0.46125746 -12.47538 7
-3.0086195 -0.33417869 -12.452022 7
-2.9739225 -0.35059887 -12.453192 6.833333
-3.0142045 -0.28872058 -12.493383 6.5060244
-2.9884501 -0.24358529 -12.473708 6.8000002
16.249765 0.0040089227 -12.484632 7
44.835049 0.094861612 -12.419672 7
4.9371161 -0.7141872 -12.350923 5
-3.0214489 -0.67445976 -12.370816 6.3333335
-3.0108142 -0.53314239 -12.349661 7
-2.9945321 -0.54183894 -12.347908 6
-3.0134983 -0.4395256 -12.350348 6.608871
-2.9949579 -0.44549167 -12.355232 7
-3.015445 -0.36406735 -12.353517 6.9166665
-2.989316 -0.3484211 -12.37984 6.3491378
-3.0055084 -0.25574207 -12.338878 6.7098041
-2.9922011 -0.24993992 -12.35038 6.5758314
16.513899 -0.28403607 -12.360452 6
16.426491 0.0036945604 -12.348003 7
44.786858 0.26216108 -12.39465 7
44.821663 0.22835168 -12.358496 7
44.827885 0.40689993 -12.360546 7
-3.0241356 -0.62420034 -12.294119 7
-2.9971223 -0.62036359 -12.225443 6
-3.00881 -0.5480836 -12.253155 6.8333335
-2.9949446 -0.58081901 -12.251733 7
-3.0069935 -0.40825182 -12.276545 6.5
-2.9937305 -0.45932204 -12.244705 7
-3.0087187 -0.3614316 -12.233663 6.6885133
-2.9873226 -0.32738924 -12.23278 6.4918847
29.345499 -0.36203068 -12.269184 7
-3.0039358 -0.26882952 -12.210264 7
-2.9885018 -0.26511163 -12.291251 6.5
4.4745388 -0.29752448 -12.268362 5
-3.0050197 -0.18699974 -12.272313 7
4.434844 -0.019554563 -12.200108 6.5
4.4361434 0.076051317 -12.273763 7
44.854004 0.094443709 -12.298058 7
34.512329 0.11480951 -12.299288 7
44.8312 0.25426155 -12.249334 7
44.833633 0.33977962 -12.290834 7
-2.9865685 -0.83618218 -12.184928 7
-3.0371246 -0.70313042 -12.18149 7
-3.0247567 -0.61613315 -12.147635 6.6666665
-2.993135 -0.6300329 -12.191341 5.9285712
-3.0154061 -0.58880699 -12.140696 6.5
-2.9891672 -0.52816325 -12.122726 7
-2.9944649 -0.44536415 -12.16563 6.9166665
-2.9665174 -0.33911374 -12.155572 6.7566667
4.6921816 -0.3120403 -12.186807 5
29.329363 -0.39782298 -12.192452 7
-3.0155354 -0.28493938 -12.148673 6.6830602
-2.9864028 -0.2712408 -12.166195 6.8347225
-2.9938512 -0.14026514 -12.19558 6.0925927
4.4270496 -0.11372065 -12.133264 6
4.6829076 -0.12316949 -12.103105 6
4.6201663 -0.018899567 -12.141389 6.5384617
4.6338229 0.068243496 -12.13763 7
44.858234 0.094730496 -12.105637 7
44.857567 0.11049911 -12.118637 7
44.813747 0.23746918 -12.199537 7
5.1288037 -0.70410478 -12.088455 5
-3.0087891 -0.66002488 -12.07828 7
-3.0084805 -0.55158019 -12.05213 6.75
-2.9883661 -0.5367099 -12.062014 6
-3.0038626 -0.42094523 -12.056232 6.5
-3.010375 -0.31788373 -12.060682 6.7307692
-2.987761 -0.3564696 -12.0418 6.7607589
-3.0056584 -0.28201607 -12.069598 6.4893246
-2.9845788 -0.25899523 -12.039083 6.4249053
44.841339 0.096615091 -12.031733 7
34.523228 0.11467178 -12.061859 7
44.829174 0.22450121 -12.032222 7
44.82793 0.34037048 -12.064577 7
44.819611 0.4078413 -12.050242 7
-3.0197785 -0.68388468 -11.953878 6
-3.009021 -0.53716767 -11.971501 6
-3.0099072 -0.42860854 -11.958544 6.7586207
-2.9926739 -0.44690973 -11.962731 7
-3.0112233 -0.37045941 -11.958316 6.7285714
-2.9696465 -0.32776004 -11.969232 6.6571426
-3.0060458 -0.26740119 -11.9271 7
-2.9785228 -0.26561183 -11.960795 6.7258773
44.864754 0.09499374 -11.908016 7
44.816986 0.27508509 -11.938429 7
-3.024601 -0.70153314 -11.8797 7
-2.9939663 -0.62072808 -11.823839 6
-3.0097268 -0.55938035 -11.816898 5.9333329
-2.986779 -0.57405788 -11.838307 6.6666665
-2.9901783 -0.43654397 -11.83941 6.5
-3.0045743 -0.3750487 -11.872469 7
-2.9766531 -0.35073885 -11.827229 6.7707233
4.1303706 -0.33068395 -11.899412 6
29.361971 -0.36286443 -11.871155 7
-3.0013282 -0.26077783 -11.844759 6.1999998
-2.962913 -0.25714898 -11.844532 6.3881741
-2.991364 -0.17254701 -11.833336 6.5
4.062501 -0.15144309 -11.804221 7
-2.9971161 -0.81226391 -11.784063 7
-3.0111513 -0.63815224 -11.779787 7
-2.9847703 -0.60965568 -11.778086 6
-3.0091105 -0.5684526 -11.731 7
-2.9869995 -0.56578732 -11.756256 6.5
-3.0068026 -0.404755 -11.77272 6.5
-2.9867959 -0.44446045 -11.762954 6.9285712
-3.0112045 -0.35285357 -11.759338 6.8300653
-2.9611735 -0.33920082 -11.742788 6.7111115
-3.0068061 -0.28487682 -11.728975 7
-2.9869528 -0.2681866 -11.750476 6.7520843
-2.8991797 -0.27425444 -11.700101 7
-2.9815826 -0.19316107 -11.770491 7
44.834942 0.23369616 -11.754548 7
44.844696 0.34125376 -11.748766 7
44.824265 0.40869242 -11.783433 7
-3.0024433 -0.80269581 -11.622307 7
-3.0178871 -0.61051261 -11.633856 7
-3.0057876 -0.56645674 -11.666049 7
-2.9870374 -0.56831414 -11.620496 6.5
4.2199779 -0.50202024 -11.624287 5
-3.001889 -0.42402339 -11.644308 6.5
-3.0057476 -0.35746425 -11.662066 7
-2.9753714 -0.35152835 -11.643695 6.8125
4.1567965 -0.32567418 -11.681718 6
-2.9675882 -0.27865702 -11.627909 6.740829
4.0969019 -0.20147598 -11.659847 6.7058825
44.866127 0.098229542 -11.641307 7
34.524017 0.11439444 -11.652493 7
44.826027 0.23672611 -11.653229 7
-3.0122757 -0.69997984 -11.570254 7
-2.9985542 -0.68390673 -11.599079 7
8.7279701 -0.66993856 -11.504028 6
-2.9979029 -0.50181663 -11.565668 7
3.638653 -0.55947393 -11.531786 4.5
-3.0112772 -0.45413184 -11.529154 7
-2.9935906 -0.40658075 -11.555817 6.516129
-3.0158155 -0.37445518 -11.551647 6.8720932
-2.9719436 -0.31928638 -11.564257 6.4877748
3.6931455 -0.31888962 -11.59616 6
3.7583995 -0.31915024 -11.523232 6
29.32715 -0.36305371 -11.581983 7
-2.9779532 -0.25127071 -11.573384 6.4202285
3.6955698 -0.21852583 -11.541608 6.5999999
-2.9861755 -0.17413023 -11.506163 7
3.6975889 -0.15269199 -11.556131 7
4.1485615 -0.15077169 -11.55092 7
44.838585 0.40956378 -11.513954 7
-2.9890873 -0.64088553 -11.433017 6.3095241
-3.008929 -0.5579446 -11.424788 7
-2.9830296 -0.56140393 -11.429738 6.6666665
3.667913 -0.55943131 -11.493822 4.5
-2.9856286 -0.45857173 -11.471477 6.8000002
-2.9826398 -0.34798983 -11.449319 6.8947921
-2.8981295 -0.34261107 -11.418318 7
-2.9822614 -0.26598096 -11.454792 6.7407403
3.9249232 -0.21968049 -11.486601 6.625
-2.9769199 -0.17651695 -11.405134 6
3.8975513 -0.15436107 -11.439245 7
43.838024 0.098924041 -11.429703 7
43.896317 0.10194491 -11.439688 7
44.840443 0.24172266 -11.430926 7
44.848473 0.34191993 -11.473851 7
-2.9904594 -0.78871173 -11.399187 7
-3.0096283 -0.61100769 -11.34901 7
-2.9803624 -0.61286312 -11.385144 6
-3.0127354 -0.57765043 -11.335814 7
-2.9848571 -0.56911975 -11.350652 6.4047623
-3.0004225 -0.40897304 -11.368519 6.5
-2.9804039 -0.44153202 -11.356038 6.9166665
-2.9748707 -0.34646764 -11.351331 6.6111112
3.3725858 -0.3181622 -11.377562 6
-3.0048738 -0.2825146 -11.331707 7
-2.9681592 -0.26784822 -11.349957 6.7607293
3.3176935 -0.23589349 -11.351178 6.5
-2.9777853 -0.16455919 -11.383394 7
3.2213287 -0.15342738 -11.339132 7
3.3282905 -0.15418199 -11.311355 7
16.248913 0.025602125 -11.301711 7
44.855217 0.095698506 -11.337671 7
34.534622 0.11404464 -11.354191 7
44.818886 0.23440155 -11.362286 7
-3.0102863 -0.67872822 -11.249252 7
-2.9979267 -0.56414723 -11.239212 7
-2.9844146 -0.45232815 -11.224333 6.75
-2.97542 -0.34559876 -11.2349 6.7325602
-2.8932076 -0.34088284 -11.212994 7
3.3986902 -0.39196071 -11.204132 5.5
-2.9594505 -0.27020538 -11.241237 6.4793334
43.807495 0.27898109 -11.252171 7
44.791771 0.22678946 -11.21843 7
44.824577 0.27710035 -11.281294 7
44.84071 0.34227908 -11.292564 7
44.758385 0.40969425 -11.254036 7
-2.9901428 -0.68319863 -11.150444 7
-3.005785 -0.56265575 -11.183593 7
-2.9914732 -0.55690885 -11.124382 7
3.0950367 -0.54429519 -11.163267 4.5
3.1520946 -0.54383224 -11.106558 4.5
-3.0066862 -0.45402515 -11.130967 7
-2.9887004 -0.45729122 -11.162751 6.75
-3.0083828 -0.3701348 -11.173859 7
-2.9816916 -0.36505762 -11.146881 6.6991134
-2.9802573 -0.27181685 -11.164509 6.5185132
3.0663886 -0.29938856 -11.162905 6
3.3773041 -0.25895795 -11.190251 6.3333335
-2.9817076 -0.16839406 -11.159954 7
3.4228311 -0.15219115 -11.118855 7
34.54435 0.11369443 -11.115861 7
44.657715 0.10075052 -11.172415 7
44.797615 0.22452186 -11.132246 7
44.833912 0.21672975 -11.14428 7
43.82056 0.3374899 -11.187432 7
-2.9861336 -0.76554602 -11.017118 7
-3.012764 -0.61093926 -11.070091 7
-2.9818087 -0.60515481 -11.036839 6
-2.9817424 -0.55884326 -11.042166 6.8000002
-2.9844642 -0.43963546 -11.022934 6.6374998
-3.000598 -0.38780805 -11.061993 6.5128207
-2.9769714 -0.3395994 -11.029936 6.8346086
-2.8948424 -0.33084506 -11.074636 7
-2.9593875 -0.24898808 -11.071724 6.6012011
-2.9699342 -0.19289044 -11.005128 5.9759035
3.0606396 -0.16640371 -11.082916 6.818182
3.1526175 -0.13785785 -11.041152 7
44.841511 0.25382689 -11.068017 7
-2.9859276 -0.64307702 -10.949751 6.4583335
-3.0044994 -0.55122685 -10.984721 7
-2.9746485 -0.5395093 -10.966127 6.25
3.3930597 -0.54820597 -10.927547 4.5
-2.9809439 -0.44088611 -10.958647 6.9124999
-2.9792602 -0.32607263 -10.93451 6.727273
-3.002811 -0.28231674 -10.943041 7
-2.9757626 -0.26989156 -10.948353 6.6875267
23.745619 -0.039443061 -10.959424 7
40.777645 0.048687637 -10.910252 7
44.665428 0.096671641 -10.9448 7
44.746395 0.2268237 -10.947266 7
44.845886 0.21678264 -10.958525 7
44.793865 0.34276313 -10.936894 7
-2.9848533 -0.60430503 -10.866316 6
-3.00424 -0.56623989 -10.886689 7
-2.9833679 -0.57669598 -10.867679 6.1720428
