# .PCD v0.7 - Point Cloud Data file format
VERSION 0.7
FIELDS x y z intensity
SIZE 4 4 4 4
TYPE F F F F
COUNT 1 1 1 1
WIDTH 1200
HEIGHT 1
VIEWPOINT 0 0 0 1 0 0 0
POINTS 1200
DATA ascii
-0.67652702 -0.74473464 -4.181695 2.4296875
-0.24509132 -0.7457875 -4.1960015 2.9000001
0.1048227 -0.72607028 -4.1792259 3.8
0.6049661 -0.72690737 -4.1755872 2.8571429
0.96693337 -0.72393018 -4.2115541 2.4000001
1.3636217 -0.71624917 -4.2210345 3.5
1.7664868 -0.70985258 -4.1501708 3.5454545
2.1728337 -0.71078306 -4.175756 2.4089637
2.6329091 -0.70215857 -4.2160172 2.0725
3.0552633 -0.70583683 -4.1607761 2.4305556
3.376513 -0.70960385 -4.2009759 3.0454545
3.7719891 -0.6924454 -4.2102604 3.4210527
4.164372 -0.69119453 -4.20999 4
4.5122638 -0.70047396 -4.1849966 3.3636363
5.0004711 -0.6820389 -4.2136316 4.5999999
5.4120975 -0.68729752 -4.1967702 4
5.7477269 -0.68799311 -4.1896205 4.1666665
7.0914364 -0.67966533 -4.0657544 6
7.3650589 -0.67046022 -4.215301 5.6666665
7.7085581 -0.64396065 -4.193037 5.1578946
8.2778111 -0.67298061 -4.0127783 5
8.5732861 -0.66075486 -4.0814371 5
11.705669 -0.58561039 -4.1828456 5.875
12.263902 -0.52884895 -4.3826804 5
13.09659 -0.6670903 -4.1185722 5
13.979912 -0.53906196 -4.176384 6
14.323952 -0.55171621 -4.1519089 4.75
14.634653 -0.54228759 -4.2651615 4.25
15.006854 -0.49479803 -4.311841 4.5
15.386975 -0.52711129 -4.1850257 4.625
15.799364 -0.52221382 -4.212966 3.4423077
16.206593 -0.51679152 -4.1804271 3.8
16.634083 -0.50731111 -4.2510786 2.4375
17.032827 -0.50080448 -4.2020793 3.1428571
17.365238 -0.49118075 -4.208056 2.3888888
17.781685 -0.48258996 -4.2092705 1.8823529
18.162346 -0.47418311 -4.2215376 2.230303
18.604425 -0.46101886 -4.1632061 1.0714285
18.984686 -0.44601667 -4.26092 2.53125
19.440142 -0.44253793 -4.2139106 2.7361109
19.796389 -0.44589171 -4.2136998 2.5
20.114767 -0.44032136 -4.2058344 3.2
20.55121 -0.42614684 -4.202517 4.1999998
20.969337 -0.42284933 -4.1124029 2
21.434343 -0.41516784 -4.1518769 3.1393938
21.850235 -0.41333684 -4.0911765 2
22.227875 -0.40996787 -4.2211337 2.090909
22.517029 -0.40628812 -4.208694 0.77962965
23.104538 -0.40095639 -4.2382145 2.3333333
23.393085 -0.4062663 -4.1895518 4.5714288
23.82658 -0.40520799 -4.2822361 4
25.881771 -0.57070279 -4.1829243 3
39.712349 -0.48654824 -4.2143168 6
-2.8382993 -0.27870616 -4.1922784 6.5805545
-2.7938387 -0.25845033 -4.107564 6.7875938
-2.220499 -0.30717492 -4.0293751 6
11.184445 -0.064944841 -4.0167074 7
12.098129 -0.35972789 -4.3977184 6
15.364784 -0.39460552 -4.3397369 5
15.774734 -0.097587943 -4.130393 5.7166667
22.315411 -0.3960467 -4.1170588 2
22.658043 -0.39619565 -4.226656 2.4444444
23.015297 -0.39654064 -4.2401099 1.6573428
23.419357 -0.32565171 -4.189239 3.6190476
23.814293 -0.33950379 -4.2132335 4
24.126299 -0.36291268 -4.2591844 4.1666665
24.582209 -0.37729469 -4.2343211 3.1666667
25.283291 -0.3621729 -4.3064356 4.5
25.611204 -0.36836725 -4.2568789 4
29.424843 -0.13033533 -4.2580547 6
-2.8445289 0.15690498 -4.1965404 8.3820505
-2.7933886 0.16022536 -4.101819 8.1081924
11.173305 0.26358673 -4.0572448 8.1378336
11.266271 0.27628058 -4.1769648 8.1402493
12.155499 0.05022943 -4.3589835 7
15.114285 0.39361739 -4.1145616 8.1525002
15.504389 0.19402158 -4.20999 8.1315002
15.635387 0.061853692 -4.2978191 8.1590004
19.032679 0.18230747 -4.3584819 7.3333335
23.318722 0.2317158 -4.1676698 7.1086264
23.616344 0.36564779 -4.2529564 8.5233746
24.283894 0.37298834 -4.3827505 8.0240002
40.77182 0.22454053 -4.253417 7
-2.8440504 0.56776297 -4.1784096 10.221181
-2.7999227 0.53403193 -4.1637893 11
-1.9080559 0.58808136 -4.0357904 11.507
11.873728 0.6955899 -4.0287404 9.1412506
12.173003 0.56771535 -4.2217774 8.7513332
12.410878 0.716447 -4.2484426 9.1455002
13.314651 0.57450885 -4.3134007 9.1230001
13.882799 0.76604027 -4.1493921 10.135675
14.286097 0.54339814 -4.3566546 9.119318
14.650894 0.46325678 -4.2281575 9.1305351
23.432411 0.46533194 -4.1942406 8.4096308
23.826872 0.59925163 -4.2391849 9.3442926
24.105989 0.69008642 -4.2388229 9.6333923
-2.8507018 0.96353608 -4.1919689 11.400946
9.398098 0.96353281 -4.2056231 10.624001
11.365824 1.1705042 -4.0008731 11.1505
12.137777 0.81386602 -4.2779074 9.1499996
13.578383 0.85865664 -4.1462774 10.1505
18.883987 0.9647795 -4.3082256 10.07925
24.684019 0.90227419 -4.3559008 10.562749
25.074196 1.1099924 -4.2470269 11.024543
25.376608 1.1331711 -4.2745271 10.64015
25.688719 1.0788766 -4.2357707 9.6431589
26.202703 1.1565748 -4.2718086 10.244666
26.588079 1.1457645 -4.1747808 10.457199
26.859266 1.1630039 -4.0836253 11.051583
30.167538 0.98002088 -4.2714868 9.0580006
39.749916 0.83440423 -4.2055826 8.0430002
-2.8524592 1.3643113 -4.2000523 12.089423
-2.7995214 1.3562006 -4.2256069 9.0024996
18.875034 1.2537565 -4.3771582 11.15825
25.512577 1.2190605 -4.0799818 9.1599998
26.784061 1.4110285 -4.2534399 10.5175
27.018053 1.2806309 -4.2218232 11.043608
27.204777 1.2480223 -4.1742792 11.0455
27.672573 1.5269415 -4.0876994 12.0475
-2.8652942 1.7724237 -4.2098703 12.479057
4.0660243 1.7093017 -4.1928315 11.1125
44.953979 1.9206514 -4.2168436 9.0299997
-2.8756661 2.1796324 -4.191185 12.737757
7.1370111 2.3833892 -4.1619482 15.12
7.2604685 2.2002802 -4.053236 12.128
7.9274969 2.2298229 -4.0107098 13.644
8.3626137 2.3108981 -4.2057972 12.572348
8.4340334 2.2872496 -4.182889 14.240223
15.549205 2.3598857 -4.2284088 12.920474
15.837208 2.345175 -4.1930404 13.869817
18.378405 2.1654811 -4.2482705 12.481999
18.462837 2.1405962 -4.1921997 13.132961
26.670656 2.2337468 -4.1826587 12.664519
27.011648 2.1278844 -4.1951823 13.1265
27.430042 2.1203911 -4.174438 12.25189
27.802202 2.1480312 -4.1757283 13.088681
31.108091 2.3122227 -4.2381716 10.684751
34.352242 2.3155022 -4.1845932 10.461719
42.321674 2.2973044 -4.1791282 9.1611872
44.927319 2.1535723 -4.1779652 9.0741663
-2.8864267 2.5974932 -4.2225366 12.870222
-2.5895014 2.6713893 -4.2029052 13.527978
-2.2464004 2.6923757 -4.2212615 13.9142
-1.8552085 2.6839039 -4.2611413 14.447333
-1.4845461 2.6015348 -4.1825275 11.911186
-1.0360765 2.7162955 -4.1825109 15.116917
-0.46413246 2.6225781 -4.2453818 11.9351
-0.24918289 2.6374533 -4.2031989 12.730901
0.34833217 2.6514244 -4.0845909 15.12125
0.46822971 2.7092659 -4.2652698 12.135625
1.640329 2.6928239 -4.2144995 13.62725
7.146585 2.4493423 -4.2954278 14.788917
8.3781223 2.4524238 -4.2008371 13.012425
8.4036865 2.4107752 -4.0727768 12.6165
8.9321375 2.6405756 -4.1390681 13.597125
9.7995691 2.7900336 -4.2308326 14.545334
10.119369 2.7952499 -4.2264409 14.564876
10.61754 2.79848 -4.2394395 14.136
10.959106 2.7753332 -4.2458773 14
15.549239 2.5363204 -4.2153773 12.414913
15.889899 2.5376611 -4.1761627 14.487777
23.754124 2.5788202 -4.1796627 12.790035
24.01989 2.4767084 -4.1905494 14.075624
31.904625 2.6966503 -4.2217669 12.08586
32.155918 2.6160173 -4.1363406 12.059313
34.383087 2.4218333 -4.0546436 9.0780001
34.401348 2.4463305 -4.0609331 10.168
40.799164 2.4828765 -4.0007834 10.053
40.966721 2.7696788 -4.1209846 10.09075
42.297028 2.4358945 -4.0207286 9.6072502
42.86338 2.6991541 -4.0128088 10.0545
44.088779 2.7667079 -4.3075266 10.047
44.962601 2.6482532 -4.1782351 9.1347504
-2.9106843 2.9445679 -4.1931348 13.226228
-2.7179623 3.1204045 -4.2160149 15.1145
-1.5207186 2.8826196 -4.3489895 15.1175
0.74846268 2.8220773 -4.103405 13.1105
2.6718445 3.1781957 -4.0898514 14.113
8.3561869 3.0245922 -4.2358193 14.787083
8.4316759 3.0888572 -4.2338333 14.351639
9.8059978 2.8291883 -4.21766 14.865828
10.224567 2.8093553 -4.2061839 14.875848
10.652929 2.8217173 -4.2299871 14.688032
10.985858 2.8341501 -4.1730123 14.480105
11.419507 2.8468275 -4.1411414 14.657776
11.799827 2.8480904 -4.1800075 14.504636
12.238447 2.8434463 -4.1614127 14.562207
12.574834 2.8468001 -4.1877298 14.713284
13.031013 2.852798 -4.1630058 15.064611
13.424891 2.8581841 -4.1767988 14.67241
13.810703 2.857861 -4.1952381 14.330965
14.207949 2.866734 -4.1587453 14.594858
14.611213 2.8689024 -4.2044926 13.737267
14.98119 2.8766809 -4.1932664 13.893125
15.403028 2.8749099 -4.2613077 14.836072
15.949175 2.8373926 -4.063489 15.068501
16.169157 2.8491886 -4.1895208 15.0834
16.491663 2.8634453 -4.1546469 15.083951
17.021519 2.8732667 -4.1574564 14.757025
17.393187 2.8825958 -4.217598 14.500854
17.797131 2.8764527 -4.2092285 14.432526
18.176525 2.8801177 -4.1736317 14.481335
18.481293 2.8904934 -4.1798172 14.149687
18.901379 2.9010856 -4.1702738 14.150625
19.480427 2.8956857 -4.2405782 13.617
19.843739 2.9060588 -4.1584349 13.0884
20.098272 2.9467812 -4.2219939 12.431708
20.571707 2.9203689 -4.17975 13.621947
21.040016 2.9057875 -4.1934347 13.385195
21.411884 2.9084134 -4.129899 13.793875
21.793892 2.902457 -4.1285105 13.452332
22.186077 2.9197452 -4.187005 13.123036
22.61949 2.9445674 -4.2162075 13.133458
23.049513 2.9323864 -4.1879416 12.988667
23.359976 2.9408264 -4.2158151 12.89355
23.730419 2.8764448 -4.2064047 12.53723
25.447647 2.9936228 -4.0324793 14.1715
25.864309 2.9906421 -4.2480412 14.13075
26.219494 2.9952536 -4.2267351 14.087626
26.618172 2.9959035 -4.2489557 13.836813
26.982605 3.0277858 -4.2240481 14.327437
27.372873 3.0446484 -4.2160974 13.910125
27.881805 3.0396793 -4.1784177 13.654963
28.192678 3.0489566 -4.2802653 13.077215
28.615438 3.0704489 -4.0865216 14.6965
29.039772 3.0515127 -4.144371 11.831166
29.348188 2.9660578 -4.1523414 10.16375
29.798559 3.0101237 -4.2104211 10.7633
30.194057 3.0108213 -4.2231736 10.964701
30.414791 3.0519781 -4.3576365 11.1665
30.916489 3.0716646 -4.1782742 11.165751
31.383734 3.0050647 -4.1516237 10.147666
31.909817 2.9722376 -4.1824837 12.385272
35.31057 3.146112 -4.2158499 12.056499
35.875015 3.1643109 -4.3148775 12.055
36.213169 3.1652107 -4.2403259 12.045187
36.540146 3.1691389 -4.2252173 12.04875
36.928139 3.1889923 -4.1335201 12.04325
37.358768 3.1754954 -4.1902394 12.042375
37.88797 3.1377776 -4.2053947 10.169
38.167332 3.1636102 -4.3180728 12.036
38.603912 3.1230202 -4.2363563 10.16975
40.922394 2.9993303 -4.192863 10.497857
44.121017 2.8019485 -4.3881803 10.0445
44.931389 2.967464 -4.1675477 9.6993999
-1.275085 3.3462634 -4.1768708 12.217793
1.197422 3.3090689 -4.0592804 14.1115
1.4352536 3.2896137 -4.2092066 12.64425
3.4908109 3.4997041 -4.3318558 12.176
3.6797323 3.4386125 -4.2013993 13.406918
6.3698535 3.3827028 -4.3041072 14.134
6.5734797 3.4389594 -4.2084002 14.512319
8.2349901 3.318645 -4.3148966 15.118
37.312252 3.2309935 -4.3040423 12.033
40.771595 3.2077579 -4.1889601 10.17
40.905899 3.2199609 -4.194603 11.039
1.4413958 3.7519386 -4.31353 15.1115
1.8005686 3.7223837 -4.1538067 15.11225
3.8466384 3.7714794 -4.1692491 14.093166
4.1749697 3.7897396 -4.1323962 14.115926
4.5254273 3.794009 -4.1374545 13.789166
4.9279032 3.8050168 -4.2738614 15.113583
39.426895 5.1027274 -4.3036413 14.051
25.752419 -2.5013814 -3.7116055 1
23.835262 -2.1244156 -3.7751822 1
11.122735 -1.2827311 -3.7680824 4
18.624693 -1.3432606 -3.8441443 0
11.1594 -0.91946989 -3.9693966 5
11.24403 -0.97138625 -3.6555729 5
15.89924 -0.93939066 -3.7635062 3.2571428
23.199203 -0.88555932 -3.6483393 4
23.261345 -0.89437526 -3.7634916 3.8125
-2.8322225 -0.59780335 -3.8039942 5.199636
-2.7022622 -0.66070932 -3.7785468 4.7234755
-2.2217982 -0.74574214 -3.7991772 2.924731
-1.8106837 -0.74992663 -3.8251939 2.8733332
-1.414029 -0.74051291 -3.766504 2.1555555
-1.0149581 -0.73659152 -3.7432339 2
-0.63553768 -0.73333478 -3.7312286 1.0980393
-0.20593919 -0.73613572 -3.8062203 1.75
0.17439604 -0.73010498 -3.6786304 2.5
0.69189423 -0.72905302 -3.6874678 3
0.99832869 -0.72812068 -3.6462934 1.5
1.3855242 -0.7171365 -3.8174851 2.5842106
1.7679597 -0.71174401 -3.7919555 2.1428571
2.2063651 -0.70973903 -3.7797322 2.8907564
2.6347258 -0.71170551 -3.7567322 2.0375297
2.990603 -0.70795417 -3.7899559 2.652174
3.3868308 -0.69866031 -3.8092778 2.8888888
3.7621586 -0.68883646 -3.7529018 3.3333333
4.233285 -0.68392843 -3.81074 4.1538463
4.5355701 -0.69032747 -3.7440612 3.8421052
4.9701972 -0.69167215 -3.8168967 5
5.4209638 -0.68216354 -3.7562544 4.1111112
5.7562943 -0.6789943 -3.7564061 4.2307692
6.2442069 -0.67346907 -3.7728169 5
6.6191139 -0.67983991 -3.7727814 5.6666665
7.0903482 -0.6650126 -3.742162 5
7.773056 -0.65886807 -3.9007716 5
8.1540813 -0.6651026 -3.8715467 5.5
8.6515579 -0.66052896 -3.8768709 5
11.563306 -0.60596174 -3.9567764 6
12.14501 -0.58877021 -3.8011422 6
13.011945 -0.62688863 -3.7825706 5.5
13.725064 -0.54526591 -3.8757482 5.5
14.339915 -0.54862899 -3.820013 4
14.560364 -0.54414433 -3.7716894 4.1111112
15.04671 -0.52966678 -3.8070312 4.6999998
15.401726 -0.52830088 -3.8139594 4.7142859
15.857121 -0.54702967 -3.8581047 3.4166667
16.198112 -0.51614708 -3.8303297 3.8181818
16.608662 -0.50888509 -3.8183296 3.05
17.027828 -0.49760273 -3.7483768 2.8333333
17.369196 -0.48836806 -3.8421137 2
17.759478 -0.48118559 -3.8541596 0.60952383
18.179235 -0.47156689 -3.8059092 1.1875
18.571922 -0.4496761 -3.8106122 3.0666666
18.979309 -0.44561264 -3.8231971 2.1666667
19.423904 -0.43752399 -3.8533604 2.2833333
19.770926 -0.43489045 -3.7548528 3
20.188824 -0.43919462 -3.8272195 2.5999999
20.623739 -0.42362803 -3.7546067 4
21.016388 -0.42682528 -3.7771444 2.3333333
21.422379 -0.41003117 -3.7879622 3.1666667
21.767719 -0.4052828 -3.7070224 2.75
22.221571 -0.41082203 -3.8059273 1.8333334
22.625542 -0.40762314 -3.8262918 1.7409812
22.848944 -0.40660375 -3.6883731 3
23.246847 -0.73655635 -3.7553592 4.4444447
23.912525 -0.40166748 -3.9399416 3.5
25.974144 -0.57193947 -3.8876486 3
-2.8342686 -0.28250715 -3.7870672 6.5740132
-2.7908466 -0.25093544 -3.7517214 6.7560487
-2.0996184 -0.20849657 -3.8832822 6.53125
15.796339 -0.17451331 -3.777813 6.0749998
21.850729 -0.39947754 -3.7227957 1
22.279491 -0.3959184 -3.7799425 2
22.630047 -0.39380714 -3.8097334 1.6923077
23.023251 -0.37844747 -3.7924938 2.5750446
23.351276 -0.29322752 -3.7987146 3.5984848
23.750711 -0.37103239 -3.8344367 3
24.145561 -0.3833054 -3.8477418 3.3333333
24.684998 -0.37883595 -3.7808456 3
24.817417 -0.36749315 -3.9800441 3
26.263418 -0.34655559 -3.6171398 6
26.814972 -0.34706947 -3.7656527 5
-2.8411636 0.1476588 -3.8018694 8.349349
-2.7952075 0.13394947 -3.7633655 8.123826
-2.2158012 0.15284735 -3.7790513 8.842083
-1.9957218 0.20053667 -3.8966231 9.125
11.149954 0.23429832 -3.8349385 8.1353502
11.218944 0.21547134 -3.877336 8.1368008
15.134681 0.39615405 -3.812583 8.1577501
15.356647 0.36799112 -3.7701664 8.1275835
18.256147 0.18020119 -3.7043259 7.5
23.284842 0.20580469 -3.7761283 6.8980451
39.857681 0.26251665 -3.8942232 7
-2.8430991 0.54965419 -3.7921746 10.155558
-2.7974343 0.54552698 -3.7493086 10.253603
-2.1531017 0.58879322 -3.9471977 11.482722
-1.9870174 0.57677495 -3.9399729 11.461538
11.3004 0.43922105 -3.8402309 8.1490002
11.810946 0.67590123 -3.7417936 9.1431665
12.304214 0.76250505 -3.7751956 9.1485004
12.503794 0.79626817 -3.8977358 9.1392498
13.937622 0.79108816 -3.9258325 10.1335
14.798035 0.46122065 -3.8391964 9.1339998
14.95263 0.43885219 -3.8616428 8.8858128
18.280668 0.63448304 -3.8030596 9
18.435905 0.63795656 -3.7755795 9
23.370037 0.46664223 -3.8097401 8.4113388
23.825241 0.63717586 -3.8065696 9.5380192
24.07345 0.69965225 -3.8333359 8.7504997
-2.8460915 0.96038723 -3.7842174 11.527617
-2.7992048 0.90695518 -3.8182724 10.85
-2.1334121 0.89717406 -3.8878586 13.405334
7.8324537 0.93577665 -3.6679249 10.132
12.736443 0.84146202 -3.7212162 9.7416
12.810993 0.83126068 -3.8569264 10.126375
13.833171 0.8437686 -3.8063552 10.142
18.194992 0.89116776 -3.6731977 9.8917503
24.491398 0.83560157 -3.6595221 9.00875
25.059626 1.138236 -3.8325355 10.696713
25.332323 1.1891259 -3.834446 9.1604996
26.281048 1.1995232 -3.8359289 11.02775
26.668444 1.1365933 -3.7871671 10.200017
26.954124 1.1830518 -3.757021 11.045125
-6.5976562 1.560909 -3.7336049 13.0635
-2.8496327 1.3637394 -3.7951734 12.235676
4.1233463 1.5987033 -3.7036717 14.1635
18.194824 1.258402 -3.6772385 11.052834
26.260433 1.2070516 -3.6765957 11.027875
27.111731 1.286438 -3.7041309 11.037634
27.703228 1.5306158 -3.7008553 12.046
-2.8612475 1.7771789 -3.8110325 12.381331
4.0921998 1.6497242 -3.6556187 13.38875
27.175102 1.6554995 -3.8652277 11.0175
44.964237 1.9000342 -3.7977157 9.0445004
-2.8729708 2.1840727 -3.8053575 12.659171
7.145956 2.1997466 -3.788568 11.1205
7.3956423 2.2152271 -3.85537 12.775473
7.7864523 2.2205729 -3.8956492 13.386856
8.2818136 2.2463372 -3.8417084 13.105
8.4242697 2.3184779 -3.7966244 13.210938
15.562304 2.3428664 -3.8952308 13.273532
15.747313 2.3440175 -3.8170002 13.500969
18.393894 2.1354136 -3.6928854 11.140499
18.486797 2.1448643 -3.8225126 12.947108
23.42193 2.2246771 -3.6185951 12.0805
23.838541 2.2775083 -3.6617723 12.4639
24.314911 2.2555113 -3.6059191 12.865625
24.713812 2.2982883 -3.6104112 12.85745
24.977062 2.2864277 -3.6232927 12.545125
25.355581 2.2781634 -3.6125579 11.7477
26.683954 2.254401 -3.7488732 13.353774
27.873428 2.1610487 -3.7876313 13.384999
28.356407 2.216773 -3.7423718 11.707667
28.709631 2.2502124 -3.7068844 10.813625
28.929152 2.2625968 -3.7162018 11.585083
29.404659 2.2375848 -3.708554 10.533601
29.785784 2.2554729 -3.7102075 11.318125
30.191179 2.26004 -3.7359228 10.990555
30.700436 2.3071947 -3.7547529 11.320375
31.056641 2.3092723 -3.7661562 10.857312
31.337769 2.2865288 -3.7534783 10.764
31.763544 2.3027461 -3.7537777 11.048643
32.187187 2.316895 -3.7886353 11.042
32.674541 2.309407 -3.7811406 10.735166
32.997345 2.3497643 -3.85989 11.0255
33.329212 2.3095891 -3.7721925 9.6625004
33.652458 2.3204708 -3.7718017 11.057
34.319427 2.3141706 -3.7521255 9.7250996
34.455853 2.2863147 -3.7540686 9.6123343
39.856941 2.3822563 -3.8539219 9.1695004
41.916397 2.3631506 -3.8857431 9.1700001
42.283382 2.2550435 -3.73209 9.1652498
-2.8873174 2.5732331 -3.792655 13.036371
-2.534806 2.6605899 -3.8023689 12.49705
-2.2474186 2.6904738 -3.7970011 14.447
-1.8897823 2.6934936 -3.877094 14.778834
-1.4036695 2.6402004 -3.7387121 13.002083
-1.076908 2.6442673 -3.7287414 12.777667
-0.53070235 2.621258 -3.8285086 12.678916
-0.30641666 2.6366649 -3.7817395 12.254656
0.23094606 2.6866467 -3.6727285 15.11925
0.48885083 2.7249913 -3.8157024 11.936899
1.5868778 2.701725 -3.7837152 13.113
1.6946741 2.717839 -3.8758366 14.486
7.1433716 2.4579895 -3.8836772 14.786167
8.3815861 2.4583118 -3.7833164 13.016666
8.4096832 2.4566693 -3.8080006 12.984251
8.9245777 2.6478009 -3.8414834 13.406301
9.8095608 2.7880433 -3.7683358 14.12155
10.157346 2.7980313 -3.8766551 14.5
11.286494 2.7857542 -3.8775029 14
12.213435 2.7596359 -3.8821173 14.1325
12.546787 2.7730405 -3.9316444 15.114
13.02941 2.7835929 -3.933552 13.142892
13.21062 2.7886815 -3.9788399 14.132626
15.556557 2.5579565 -3.8057067 12.391934
15.877833 2.504751 -3.7609794 14.200311
17.646441 2.7990744 -3.9964333 13.155
23.760937 2.5655205 -3.8348289 12.589989
24.052137 2.4604096 -3.8611765 11.620501
25.436459 2.5952115 -3.6260552 12.814099
28.05447 2.5125408 -3.673645 10.1655
30.755384 2.5890574 -3.7497663 12.148499
30.964457 2.5542612 -3.7839289 12.511945
31.916309 2.695421 -3.813112 12.372823
32.219402 2.624728 -3.846704 11.860399
33.335968 2.5508161 -3.8447261 12.0475
33.640202 2.6360414 -3.8163652 11.876916
34.360577 2.4112883 -3.8094871 11.056499
35.292404 2.7092564 -3.8837514 11.059
36.629967 2.7212186 -3.8663826 10.168
37.637283 2.4428272 -3.8630781 10.062
38.31163 2.4462354 -3.8463087 10.0625
38.709831 2.4566321 -3.8787069 10.0585
39.651894 2.6112299 -3.9074221 10.0605
40.160221 2.5134122 -3.9373837 10.0555
40.931454 2.6590912 -3.8584347 10.0295
42.212921 2.5098979 -3.8372445 9.8304996
44.128986 2.695998 -3.8053308 9.5130997
44.961205 2.5484035 -3.6667385 9.1339998
-2.88835 3.0313225 -3.7379227 12.607562
-2.5512586 3.093329 -3.7358413 15.086875
-1.0100608 2.9868309 -3.6780968 15.1195
0.70049095 2.9459381 -3.6719389 12.11
2.6566625 3.1321318 -3.8359318 13.61275
8.3202658 3.080472 -3.8955133 14.877625
8.4240751 3.0879319 -3.8912437 14.72125
9.8497334 2.8323662 -3.8203988 14.4745
10.184334 2.8104751 -3.7979989 14.799141
10.650326 2.8248599 -3.8364427 14.679049
11.007079 2.8344915 -3.8270149 14.385572
11.423031 2.8466029 -3.8049803 14.470885
11.842138 2.8484864 -3.8403237 14.610864
12.213744 2.8429134 -3.8185055 14.255315
12.613522 2.8409371 -3.8691354 14.492249
13.017946 2.8372428 -3.982079 15.08725
13.402914 2.871964 -3.8201292 14.4576
13.831325 2.8640115 -3.8183124 14.313326
14.274659 2.8743465 -3.8845789 14.425274
14.601875 2.8718376 -3.8275099 13.543962
14.980766 2.8785393 -3.8083754 13.933959
15.411901 2.8973892 -3.8005269 13.816857
15.995792 2.8373175 -3.7330523 15.14375
16.150148 2.8423805 -3.9328041 15
16.535761 2.8543043 -3.7914193 15.03625
16.9858 2.8624768 -3.8618309 14.686951
17.369728 2.8550584 -3.9819937 14.645875
17.75145 2.8508503 -3.7839842 14.148
18.207291 2.8411176 -3.8566389 15.148
18.493128 2.8710508 -3.8343971 13.819167
19.041063 2.8943207 -3.7989538 14.053
19.424435 2.8987937 -3.8033135 13.681679
19.842922 2.9087214 -3.7673602 13.659536
20.213783 2.9209309 -3.8220792 13.392984
20.612362 2.9174371 -3.8498538 13.868964
21.07148 2.9276617 -3.7596936 14.155899
21.486778 2.9315243 -3.7333183 13.657875
21.836943 2.9436197 -3.617589 14.157333
22.19276 2.9365335 -3.8315945 13.151125
22.617153 2.9516101 -3.8215108 13.4605
23.001051 2.9222844 -3.7844596 12.386357
23.42168 2.946687 -3.8132782 13.513527
23.738695 2.9036069 -3.8246961 12.223866
25.577829 3.0244269 -3.7022552 15.01575
25.87793 3.0077319 -3.7945924 14.089001
26.076574 3.0106802 -3.7673938 14.393582
26.640036 3.0310445 -3.7522883 14.301188
27.020403 3.0480759 -3.9232769 14.388583
27.490963 3.0366821 -3.7052922 13.5945
27.742285 3.0341673 -3.825902 12.877126
28.064838 2.9517393 -3.8001199 13.479813
28.567743 3.0475929 -3.8174276 14.134024
28.843132 2.9955158 -3.8388846 11.664001
29.48143 3.0190678 -3.792232 10.6655
29.710367 3.042064 -3.8492286 10.828667
30.131676 3.0523512 -3.7223768 11.165751
30.588326 3.0431244 -3.7063642 10.66625
31.08432 2.9849677 -3.8046556 11.5178
31.466682 3.0071588 -3.6548281 10.134501
31.917957 2.9530923 -3.7890041 12.633879
33.668747 2.846653 -3.8006744 12.05675
35.32613 2.9952548 -3.8693655 12.0465
35.854176 3.1610775 -3.7345929 12.03625
36.16164 3.1633806 -3.748668 12.04725
36.587505 3.1152678 -3.8782632 11.568
36.867878 3.1747627 -3.8158591 12.04475
37.300137 3.1849341 -3.7590537 12.042
38.196056 3.1682172 -3.6234622 12.035
38.416771 3.0727565 -3.9343996 10.169
39.956589 3.1719584 -3.6153297 10.1695
40.440762 3.1881835 -3.6421204 10.17
40.912113 3.0992663 -3.8490713 10.912607
44.907627 3.0610962 -3.8204558 10.037
-1.2686533 3.3392177 -3.8079741 12.171213
1.4066122 3.3403697 -3.8313227 14.111813
3.5555482 3.279284 -3.7184982 15.118
3.6804636 3.4485667 -3.772727 13.60165
6.3643184 3.3869796 -3.6812611 15.1175
6.5393386 3.4321949 -3.7548516 14.0252
7.0777535 3.2527633 -3.781662 14.61875
9.6810598 3.4538624 -3.7397327 15.12375
37.113251 3.2275736 -3.8745847 12.032249
40.57272 3.2048306 -3.6742973 10.1695
-0.41165543 3.700628 -3.7360334 14.1095
1.4840965 3.7328038 -3.8848162 15.11275
1.8484755 3.7006178 -3.7402296 15.1135
3.8465328 3.7606807 -3.8171654 13.971321
4.2750068 3.791136 -3.7418554 13.678465
4.6003613 3.7936523 -3.7268991 14.117417
6.6595473 3.698724 -3.7633431 15.116666
8.3503189 3.8486335 -3.7158175 14.1645
9.6430187 3.8702395 -3.9302158 14.162251
23.234415 4.2535563 -3.7471087 12.143749
22.904736 -2.4452436 -3.3760853 0
25.871086 -2.5062826 -3.3120518 1
26.060526 -2.5030468 -3.4509134 1
22.724977 -2.2543912 -3.5205507 0
23.83913 -2.0819402 -3.5990572 1
18.591627 -1.7116849 -3.5361905 0
19.809973 -1.8415031 -3.5342293 0
22.744864 -1.946709 -3.5374269 1
11.137186 -1.3003746 -3.4200659 4
19.959837 -1.3699391 -3.3439298 0
-2.8864436 -0.93280286 -3.3197184 5
11.139456 -1.1302184 -3.5601368 5
11.220148 -0.97412324 -3.5089707 5
15.905524 -0.96243143 -3.5614357 3.5
23.277609 -0.87568206 -3.5089908 4.1428571
28.338058 -1.0120289 -3.3633709 3
-2.829849 -0.60685265 -3.3778679 5.1073785
-2.7143717 -0.64439237 -3.3872402 4.4158893
-2.1939449 -0.75093347 -3.4111977 2.7
-1.8378745 -0.73845792 -3.4227138 2.5046296
-1.4506657 -0.73681998 -3.4617667 2.6833334
-0.99322468 -0.72737461 -3.3489101 2.25
-0.610313 -0.72862542 -3.4344671 3
-0.23422639 -0.72992212 -3.4634812 2.01
0.206589 -0.72483486 -3.3962345 4
0.61791772 -0.72137636 -3.3772061 3.5714285
0.99538183 -0.71883416 -3.372 3.25
1.4131241 -0.71262413 -3.3204353 3.3782609
1.7491131 -0.70489877 -3.3850477 3.3333333
2.2454443 -0.71064919 -3.3725989 2.2444444
2.671411 -0.70487559 -3.396524 2.2147906
2.9918656 -0.70150763 -3.3806729 2.2842996
3.3596928 -0.6934737 -3.3688028 3.1666667
3.793227 -0.68629003 -3.3813093 3.5
4.2103581 -0.68837661 -3.3935843 3.75
4.6003218 -0.68317026 -3.3952365 3.5384614
5.0175438 -0.67807561 -3.4406745 4.4000001
5.5372901 -0.67836553 -3.4539406 4.1666665
5.7666512 -0.67721945 -3.3899465 4.125
6.1368947 -0.67729348 -3.3235505 4.3333335
6.4941783 -0.6677649 -3.4302347 5
6.9565315 -0.66635168 -3.4377434 5.4000001
7.7742624 -0.66286933 -3.4015961 5
8.1256361 -0.65892017 -3.3578451 5
8.7999811 -0.6574266 -3.3033295 5
11.915775 -0.60045803 -3.4139981 6
12.136172 -0.58502221 -3.3801632 6
13.053821 -0.69316292 -3.4626722 4.6666665
14.240859 -0.55017763 -3.3934639 4.6666665
14.668014 -0.54652709 -3.3718491 4
15.053905 -0.52919477 -3.400979 4.6666665
15.400885 -0.50787467 -3.379271 4.2799997
15.867065 -0.53195429 -3.4330702 3.7720587
16.176168 -0.50655806 -3.3979583 4.3000002
16.632097 -0.49759012 -3.4362905 3.7037036
16.96949 -0.49996129 -3.4059169 3.1333334
17.37608 -0.48456737 -3.3711212 2.5416667
17.814322 -0.47379583 -3.4275987 1.5789474
18.194107 -0.46582261 -3.4257882 1.6126984
18.581486 -0.44757321 -3.4240067 2.2857144
18.991175 -0.43455282 -3.432811 2.3333333
19.446507 -0.43366861 -3.3846526 1.6117647
19.79538 -0.43190539 -3.339874 1.5
20.070827 -0.4292658 -3.2900996 1.5
20.651337 -0.41925821 -3.3270416 2
20.939253 -0.41540423 -3.4059715 3
21.414005 -0.41211855 -3.4349921 4.0164838
21.778631 -0.40561989 -3.38587 2.1666667
22.166224 -0.40798265 -3.4887052 2.75
22.527237 -0.4041957 -3.4830697 2
23.154631 -0.40250912 -3.4064717 4
23.313276 -0.66033691 -3.5071383 5
23.944458 -0.401144 -3.3878193 2.5
24.243725 -0.4235515 -3.3077798 5
-2.8298602 -0.27133137 -3.3846109 6.5379238
-2.7894619 -0.28106123 -3.4017429 6.8141828
11.093036 -0.063867204 -3.5010023 7
14.860518 -0.36692965 -3.2850494 7
15.834238 -0.17767787 -3.296478 5.53125
21.374968 -0.3956871 -3.3994803 5
21.801628 -0.3928647 -3.3332314 3.5
22.234556 -0.39216629 -3.4379959 3.2871795
22.623745 -0.38743073 -3.3805919 2.392437
22.993742 -0.38421738 -3.4063351 2.6488888
23.360895 -0.26517597 -3.4424317 3.8026316
23.838387 -0.35268563 -3.3768277 3.2222223
24.197716 -0.35822108 -3.4229529 4
24.616241 -0.37079275 -3.4163258 3.3846154
24.937838 -0.36775053 -3.3668566 3.3333333
25.709343 -0.35811985 -3.3752766 4
28.361937 -0.064503223 -3.3878541 6
-2.8379445 0.15751682 -3.3784201 8.3846931
-2.7924807 0.13928203 -3.3846207 8.1795921
11.178702 0.22752522 -3.5204587 8.1342497
11.226554 0.19253889 -3.4315898 8.1345997
15.327564 0.36869732 -3.4076488 8.156167
15.803792 0.021063939 -3.2855797 6.9744682
23.32099 0.26919112 -3.3519356 7.2940583
23.620966 0.36717829 -3.2501354 8.0764999
28.301395 0.24039149 -3.2680941 7
31.953815 0.25541362 -3.4955907 7
-2.8355653 0.55637312 -3.408695 10.209146
-2.7937899 0.5699541 -3.3056946 9.8511734
10.067135 0.65384018 -3.21948 9.1204996
11.289804 0.44859925 -3.4634609 8.1485004
11.868414 0.5823344 -3.3268976 9.1405001
12.317995 0.7861408 -3.354537 9.1485004
13.383133 0.56213188 -3.352494 9.1285
13.911427 0.77585649 -3.3362966 10.001031
14.741549 0.46760228 -3.3297355 9.1381664
14.928085 0.44310167 -3.4137874 8.5586185
23.409515 0.4539099 -3.3861594 8.4030275
23.814955 0.60873491 -3.424228 9.13097
24.118416 0.71051037 -3.3704016 9.646183
25.544304 0.77056241 -3.5482864 9.0710001
28.309341 0.54271829 -3.3409142 8.0570002
28.446274 0.54693544 -3.2304826 8.0565004
31.900261 0.65291119 -3.4460182 8.0469999
-7.2893114 1.0827558 -3.233851 11.0635
-2.8403356 0.95988899 -3.3859959 11.520307
-2.7976949 0.96386814 -3.3776653 11.133334
9.5041857 0.87713569 -3.3462095 10.1215
10.948298 0.85497558 -3.2027869 9.1105003
12.766062 0.81916463 -3.3857119 10.13675
12.825922 0.82737923 -3.445756 10.13225
13.773772 0.87041098 -3.4393511 9.2212219
18.396446 0.96400148 -3.5136499 10.159
24.578688 0.88180679 -3.4622986 9.2305832
25.037487 1.105612 -3.3905387 10.955613
25.548325 1.0099717 -3.4228027 10.07348
25.636433 0.99202555 -3.395436 10.295199
26.320383 1.1637955 -3.3169072 9.7825003
26.683641 1.1029357 -3.5650685 10.06475
29.33614 0.92650062 -3.2430696 9.0550003
44.968147 1.0836248 -3.3049359 8.0454998
-6.8870258 1.3514566 -3.4053757 11.086667
-6.6498337 1.5225235 -3.3645184 11.924214
-2.8414853 1.3667933 -3.3859534 12.074431
-2.7976537 1.291466 -3.4198861 12.423077
4.0590582 1.566153 -3.5090847 11.1175
25.312201 1.2231364 -3.478152 9.0834999
25.79459 1.253099 -3.4045177 9.08325
26.238197 1.2043194 -3.407052 9.0167503
27.067953 1.2407649 -3.3706346 11.037938
27.279638 1.2490145 -3.3080876 11.042834
-6.4852548 1.6250849 -3.3324966 12.411667
-2.8526127 1.8040571 -3.3821526 12.148943
4.0963898 1.6895735 -3.4795849 12.938155
44.959919 1.9330207 -3.387399 9.0471659
-2.8719389 2.1840148 -3.3969562 12.393456
7.1743903 2.275502 -3.551544 13.788417
7.2382088 2.3005135 -3.3447287 15.118
8.3619795 2.301332 -3.4338746 12.271834
8.424469 2.3017652 -3.4306374 13.020862
11.760271 2.1841466 -3.3479438 12.618081
12.316444 2.1899562 -3.3379514 12.987625
12.553725 2.0919304 -3.3571482 12.379125
13.051493 2.0759773 -3.3713717 13.530699
13.393557 2.0900178 -3.3826058 13.521599
13.864538 2.1145041 -3.3740196 12.732575
14.210464 2.1175501 -3.3748753 12.217875
14.535188 2.191299 -3.3990734 12.857552
14.940827 2.1399114 -3.3967085 12.149209
15.498308 2.210938 -3.4036505 12.891281
15.800097 2.3042822 -3.4189875 12.800038
16.180176 2.1275144 -3.4435081 12.858032
16.570482 2.130291 -3.4504583 12.386156
17.077511 2.1787193 -3.4560974 12.904631
17.354816 2.1612082 -3.4673474 12.286259
17.760199 2.157443 -3.4767482 12.644933
18.210321 2.1672895 -3.4305556 12.576954
18.539036 2.1532586 -3.4499385 12.745803
18.987988 2.1971116 -3.483537 12.315344
19.424473 2.2330456 -3.4987977 12.962125
19.821703 2.250252 -3.5026433 12.538318
20.229092 2.2046123 -3.5170352 12.122575
20.557137 2.200799 -3.5081704 12.451709
20.976498 2.2110932 -3.5309632 12.85905
21.412401 2.2221227 -3.5137424 11.389251
21.73373 2.2280133 -3.5360689 11.863375
22.231533 2.2243268 -3.5394826 12.728594
22.59057 2.2835844 -3.5431371 12.370909
23.028032 2.2282174 -3.5691502 13.414626
23.362314 2.2405555 -3.5807743 12.594792
23.777145 2.3228965 -3.5323212 12.719563
24.168848 2.2585986 -3.5895309 13.436917
24.475431 2.2605104 -3.5858667 14.066167
24.950596 2.239959 -3.5915842 12.1645
26.682253 2.2785208 -3.3925011 12.946652
27.426579 2.1597748 -3.2712526 11.0765
27.916187 2.1638918 -3.5984445 13.0615
31.101557 2.3302195 -3.3903344 11.165449
34.344299 2.3266292 -3.391763 10.104799
34.40062 2.3257263 -3.5938115 10.0285
42.350899 2.2744427 -3.3476119 9.1518002
44.941219 2.2434065 -3.5441828 9.1719999
-2.8803132 2.5575914 -3.40574 13.743974
-2.5686772 2.6705651 -3.4484105 12.950555
-2.1702998 2.6719561 -3.5131025 13.1175
-1.7868274 2.6964159 -3.4899979 14.778417
-1.4589996 2.6308463 -3.3771391 12.75454
-0.8625226 2.6597676 -3.3474541 13.113874
-0.54989469 2.6458628 -3.3370175 12.746813
-0.20700389 2.6432588 -3.4183846 12.752749
0.14087753 2.6884995 -3.2839293 13.33045
0.49643198 2.7226377 -3.435096 12.7323
1.5615402 2.6802285 -3.4053385 13.745667
1.6407989 2.6858456 -3.3851545 12.7795
2.4422381 2.7324219 -3.2263527 10.1545
8.3949947 2.4295361 -3.4714668 12.905301
8.4147549 2.4435489 -3.4140117 13.110393
8.9297733 2.6549342 -3.3701532 13.737667
9.8100176 2.7965281 -3.5391283 14.129917
10.164307 2.7934644 -3.5413132 14.134312
11.578238 2.7931561 -3.5818372 14
11.706732 2.5105782 -3.3565087 13.476963
12.337071 2.5937383 -3.3342316 14.31355
14.393278 2.6315205 -3.4268417 14.1335
14.514218 2.5842636 -3.3999226 13.860957
15.560127 2.5417244 -3.4079783 12.279882
15.863592 2.5674653 -3.4409018 14.466636
17.178366 2.5163395 -3.4637511 13.706
17.357426 2.622556 -3.407064 13.421591
19.533957 2.6511471 -3.4636223 13.629666
19.85022 2.5929263 -3.4836326 13.292929
22.368523 2.5150244 -3.533906 13.897249
22.532576 2.6432903 -3.510397 12.394571
23.772436 2.5728605 -3.4357491 12.376412
24.021214 2.4805675 -3.3945894 14.122625
24.6919 2.4296041 -3.5656872 15.0145
25.488737 2.5604589 -3.5220618 10.143
31.92625 2.7176375 -3.3719797 12.50166
32.179028 2.6172342 -3.3216186 11.0976
34.459568 2.4508567 -3.4345722 9.1409998
41.27269 2.7745831 -3.483511 10.0065
42.285378 2.4635766 -3.3251672 9.3380995
42.41758 2.475107 -3.4968967 9.1540003
44.134289 2.699851 -3.2706847 9.6077499
44.984581 2.6159768 -3.4133577 9.144125
-2.8898284 3.1195288 -3.4079106 11.560333
-2.4220941 3.084434 -3.4093227 15.1155
-1.8002105 3.1176078 -3.5009308 15.118
0.64319015 2.8515985 -3.2339954 15.12275
1.4208946 2.9957724 -3.2663622 12.126
2.6902249 3.0926456 -3.3434408 13.115875
3.0775681 2.9318373 -3.217555 14.1185
3.4225352 2.9142208 -3.2163763 14.11875
3.6592784 2.9319048 -3.2256312 13.615749
5.4492111 3.0937307 -3.2538686 15.1245
6.1790857 2.9700084 -3.2668324 15.128375
6.6255665 2.9442835 -3.2919557 15.12325
6.9428444 2.9732194 -3.2647052 13.623625
7.382761 3.0132294 -3.3330259 13.800334
7.8558125 2.987644 -3.3264718 13.125375
8.1768961 3.040138 -3.3672934 14.120667
8.4257107 3.1111097 -3.4636629 14.628938
9.8255167 2.8863523 -3.3914661 14.469833
10.221987 2.812753 -3.3610322 14.670583
10.607737 2.8306963 -3.3703544 14.636837
10.977201 2.8320446 -3.3977451 14.490763
11.40976 2.8458567 -3.4362183 14.346118
11.794322 2.8413532 -3.4055476 14.196318
12.212379 2.8400104 -3.3759568 14.269684
12.556238 2.8435826 -3.4055874 14.133812
13.04696 2.8656209 -3.3935015 13.92425
13.321618 2.8706083 -3.4392846 13.961062
13.775156 2.8775373 -3.4132321 14.590151
14.246934 2.8718374 -3.4165547 13.486771
14.601463 2.8767097 -3.3777802 13.209874
14.962632 2.8745296 -3.3482323 13.276999
15.47449 2.8797822 -3.4167848 14.147125
15.767478 2.881042 -3.4629815 13.60975
16.228838 2.8662941 -3.3865786 15.14875
16.610069 2.8745549 -3.3454809 15.14875
17.082832 2.8755763 -3.3749802 14.647626
17.466169 2.8757968 -3.4822292 14.396812
17.872154 2.8912189 -3.2516909 15.15125
18.213104 2.8880696 -3.3518648 14.15325
18.687405 2.88937 -3.2374563 13.65575
19.030811 2.9026692 -3.3306041 14.402812
19.393391 2.9019234 -3.5041525 13.989687
19.822416 2.9032207 -3.5032032 13.559215
20.191246 2.9135435 -3.4086571 13.792876
20.711832 2.9262292 -3.463973 14.485833
21.053282 2.925602 -3.4579599 14.487083
21.299946 2.9229972 -3.4266648 13.15385
21.711042 2.9397733 -3.3065159 13.434166
22.29002 2.9437618 -3.3718214 13.361376
22.591063 2.9302545 -3.3671572 12.14575
23.014309 2.9399064 -3.3980517 12.653695
23.446198 2.9258373 -3.4154682 12.440499
23.727962 2.8904431 -3.3634286 12.421525
25.324905 3.0186479 -3.5339332 15.01475
25.705418 3.0108771 -3.39766 15.009874
26.133711 3.0249822 -3.2518325 15.014
26.588255 3.0264206 -3.4780138 13.376
27.017225 3.0276318 -3.2995789 13.593
27.393738 3.0276282 -3.4957297 12.978357
27.844349 3.0483408 -3.3671494 13.799188
28.187263 3.0613506 -3.4680243 14.672958
28.541496 3.0575831 -3.4685826 13.090751
29.036688 2.9693971 -3.5453701 10.1665
29.561968 3.039242 -3.5303681 11.164917
29.950787 3.024457 -3.4750628 10.664
30.183483 3.0493324 -3.4368324 11.165
30.509735 3.0614653 -3.5413251 11.16475
31.084553 3.0446324 -3.214757 10.1655
31.926003 2.9479904 -3.399826 12.230035
35.967182 3.1542294 -3.3043208 12.035
36.554111 3.1839013 -3.4647295 11.54
36.988132 3.1818473 -3.374172 12.044415
37.297089 3.1806331 -3.4939876 12.04125
37.639408 3.1494794 -3.2619677 10.168
40.929417 3.0511262 -3.4711075 10.585334
44.950642 3.0591042 -3.398581 9.8817997
-2.8933868 3.4376748 -3.311945 11.1195
-1.264614 3.3342752 -3.3862081 12.098538
1.4149663 3.3593519 -3.3566489 14.084499
2.4413681 3.2860925 -3.2146816 14.114
3.474031 3.2712564 -3.4432788 15.1195
3.6869345 3.4448628 -3.3868937 13.642918
6.5617194 3.4266853 -3.4076917 14.625916
7.3448105 3.2643399 -3.3236666 14.6315
36.943001 3.2309928 -3.4351015 12.0315
-0.61333752 3.7035656 -3.2977114 14.11
1.4315109 3.7618036 -3.2054977 15
2.0965157 3.7547424 -3.2826233 15.1145
3.9121847 3.7864797 -3.4139516 14.110126
4.2420897 3.7915487 -3.4509423 14.136375
4.4474506 3.8088663 -3.363019 14.1395
5.0911136 3.8184991 -3.2950706 15.11525
5.3194304 3.6225674 -3.2891238 14.14
23.2232 4.2503605 -3.4902539 12.1435
25.502472 -2.5125921 -3.0550385 1
25.609058 -2.5107658 -3.127182 1
23.845366 -2.184727 -3.0904865 1
18.499346 -1.6789 -2.9408648 0
-6.3119602 -1.2673081 -3.1124401 4.25
11.175489 -1.2603638 -2.9871526 4
11.244221 -1.3195447 -2.9415634 4
23.517408 -1.2799398 -3.1915083 5
-6.9783602 -0.93487006 -2.8287718 5
-6.1512737 -1.1122469 -3.1352036 4.6666665
-5.9795499 -1.0565329 -3.1466122 5
11.181935 -0.96986544 -3.0686874 5
11.251439 -0.95771915 -2.9085464 5
12.790401 -0.80581462 -2.8148963 4
14.99116 -0.84555709 -2.8318796 3.5
15.571981 -0.87392437 -2.99227 3
-7.2050772 -0.694175 -2.8002286 7
-7.0127263 -0.66645098 -2.8354023 6.3333335
-6.1710873 -0.45215037 -3.0891321 7
-5.9931893 -0.41020894 -3.0749359 7
-2.8231649 -0.59834802 -2.9811699 4.9654832
-2.698622 -0.65000212 -2.9960194 4.5144992
-2.2102168 -0.74434417 -2.9841518 3.0057473
-1.8344318 -0.74309999 -2.9960351 2.4810607
-1.4343512 -0.73670584 -3.0444493 3.2
-1.027637 -0.73066229 -2.9737513 3.909091
-0.59825426 -0.72380584 -3.0186229 3.6928105
-0.26560625 -0.72066051 -3.0216408 2.2857144
0.18084396 -0.71364337 -3.0131874 3.6666667
0.62030727 -0.71910077 -2.9598022 3
0.97622567 -0.71278995 -2.9911871 3.090909
1.4116515 -0.71226537 -2.9621115 2.8675215
1.7735027 -0.71418959 -3.0115805 3.1666667
2.2314563 -0.70168799 -2.9691019 2.1225491
2.6285458 -0.7049942 -2.9590795 2.7083333
2.9899416 -0.69828337 -2.9947102 2.5777779
3.3477156 -0.6909889 -2.9715037 2.9230769
3.7557073 -0.69116837 -2.9908423 3.3499999
4.238205 -0.68427974 -2.9789102 3.4166667
4.6025739 -0.68673509 -2.9787858 3.2727273
4.9832368 -0.68313175 -2.9067216 4.25
5.4320817 -0.67736572 -3.0242243 4.2222223
5.7667603 -0.67448092 -2.9778738 4.4000001
6.185544 -0.67420614 -2.9992771 4.5999999
6.7134709 -0.66026998 -2.9630232 5
7.259398 -0.68176997 -2.8314753 6
7.75176 -0.62343431 -3.0015981 5.3888888
8.3744211 -0.66229737 -3.1659303 5
10.064687 -0.42884651 -2.9254427 6
11.0101 -0.59612119 -3.1651368 6
11.780532 -0.5499956 -3.0599496 6
12.063164 -0.52255565 -2.9102435 6
12.706602 -0.79802036 -2.850379 4
13.015056 -0.72973925 -3.0432415 4.1428571
13.902005 -0.53628898 -2.8055925 5
14.223763 -0.53506488 -2.9694548 5.25
14.615781 -0.53692055 -3.0751886 4.5833335
15.052653 -0.48422807 -2.9886007 4.6488891
15.340976 -0.48301807 -2.9492383 4.2333336
15.838555 -0.51949072 -3.0033498 3.2857144
16.135954 -0.51327056 -3.1146734 3.4285715
16.615385 -0.50262839 -3.0600121 2.75
17.010803 -0.49508682 -3.0177386 3.25
17.375935 -0.48820964 -3.0267045 3.25
17.790918 -0.47442636 -3.0010805 1.8880209
18.190199 -0.46055862 -2.9931002 1.275
18.650902 -0.44006911 -2.9988623 3.0555556
19.002882 -0.43763483 -3.0435691 2.5
19.393536 -0.4335112 -3.029598 2.8088236
19.755402 -0.43485317 -2.9530575 2.6666667
20.176378 -0.42922264 -3.0051506 3.4285715
20.689167 -0.41954398 -2.9797876 4.1666665
21.044176 -0.40994585 -2.9933395 3.5
21.434673 -0.4083263 -3.0090871 1.5
21.844152 -0.4017745 -2.8633988 1.6666666
22.754089 -0.40617386 -3.1839728 4
23.799774 -0.41876355 -2.9876473 4
31.617043 -0.67454433 -3.0581207 5
40.84309 -0.48561534 -2.8294356 6
-6.9134431 -0.0059567019 -3.0843377 9.0692501
-6.5256882 -0.15100011 -3.0240378 7.5518751
-5.9456987 -0.34275031 -3.1482596 7
-2.826273 -0.26434022 -2.9847584 6.4681973
-2.7824214 -0.26755127 -2.9904692 6.7400627
10.019877 -0.070820659 -2.8234296 7
13.092351 -0.30627847 -2.8983059 7
13.365513 -0.30919892 -2.8849592 7
14.701851 -0.28453192 -2.878732 6.3333335
15.074479 -0.19087383 -2.8403049 6.7534018
15.316388 -0.26817396 -2.8858109 5.4083333
15.687763 -0.12456427 -3.1112149 6.1372547
17.578566 -0.29630762 -2.8992939 6
17.876528 -0.28298563 -2.9951525 6
21.508665 -0.39926726 -2.8943191 3
21.829777 -0.38870218 -2.9706845 3.25
22.227724 -0.38906536 -3.0360377 2.625
22.618111 -0.38366413 -2.9880517 2.1376812
22.969866 -0.38382232 -3.0377045 1.5238096
23.352005 -0.38518932 -3.0147917 2.6339285
23.846992 -0.27682754 -2.9359 4.4462428
24.174294 -0.26135543 -2.9705122 4.5260453
24.517992 -0.25313494 -2.868222 4.2708335
24.836721 -0.37691376 -2.9143496 3
25.786039 -0.36197233 -2.9986935 4
26.170977 -0.35941938 -3.0227537 4
26.58596 -0.23884083 -2.9649363 5
27.115376 -0.2672947 -2.9297113 5
28.668219 -0.2869001 -2.9933796 5.1388888
29.953863 -0.075543821 -3.0392187 6
31.317818 -0.12919447 -3.090714 6
31.770159 -0.15212372 -3.0529957 6
33.514854 -0.20601173 -2.9153867 6
-7.2956376 0.18685527 -3.1163461 8.1064997
-6.9250731 0.17395025 -3.0487595 8.6957188
-6.6300774 0.084783956 -3.0442657 8.1327496
-6.2198372 0.085393593 -3.0772157 8.0869999
-2.8356056 0.14952508 -2.9933152 8.4209394
-2.7884307 0.15576321 -2.9920959 8.194931
-2.0567229 0.23585683 -2.8259594 9.416667
10.060617 0.29270703 -2.9577079 8.1330004
11.175594 0.19061127 -3.1385403 8.1315002
11.33636 0.25653604 -2.9637516 8.1310835
15.069055 0.052737504 -2.8212323 6.75
15.410343 0.33818895 -3.1365352 8.4075003
17.499075 0.13814637 -3.0063686 7.3333335
17.679281 0.35847959 -2.9178681 8.0797501
23.464636 0.1809551 -3.0473082 6.6624699
23.750181 0.19032452 -2.8939943 7.023324
24.140551 0.11539911 -2.8847516 6.1713238
24.499731 0.18744768 -2.8852181 6.5666666
25.071638 0.0956873 -2.8880243 6
25.405184 0.083475709 -2.8843327 6
25.938868 0.25224185 -2.9140565 7
26.346249 0.1207926 -2.9299171 6.5
26.406464 0.055909954 -2.9363945 6.25
28.46825 0.28236786 -3.1138237 7
31.967163 0.26873031 -3.0234067 7
44.987774 0.22173178 -3.1682892 7
-7.4677658 0.45918357 -3.0988359 9.0635004
-6.9521036 0.53254795 -3.0342536 9.0705996
-6.5362892 0.54152381 -3.0118904 9.1035004
-6.1908097 0.47554725 -3.0489426 9.0899
-2.8331676 0.55952305 -3.0170484 10.284794
-2.7932129 0.55854243 -2.9374099 10.013439
-2.1157179 0.60384238 -2.8317952 11.966667
-1.9896183 0.53605849 -2.92467 11.51725
11.776852 0.61112845 -3.0741374 9.1420002
12.249058 0.62714326 -2.9923856 9.1351585
12.60354 0.72772801 -3.047025 9.1473217
12.935435 0.73063022 -3.0407994 9.1335001
13.372896 0.62251902 -3.0000434 9.2450991
13.910785 0.73135811 -3.0598185 9.8058062
14.212004 0.58946574 -2.9858341 9.146697
14.59284 0.4746193 -3.0875478 9.1374493
14.978951 0.41779351 -3.14504 8.1555004
17.527054 0.67684853 -3.0361872 9
17.767056 0.68015194 -3.0007944 9.1595001
23.5306 0.492746 -3.1522954 8.4519606
23.755741 0.4890402 -2.9648571 8.3327532
24.121279 0.56200975 -2.9645474 8.9247923
24.600458 0.68559581 -2.9487476 9.1206331
24.957123 0.62757128 -2.9310482 9.0842972
25.417042 0.67985392 -2.9673593 8.9542503
25.809177 0.7014156 -2.9659715 8.8779364
26.168358 0.68822849 -2.9497035 8.9262505
26.535971 0.71577978 -2.9728596 8.8943329
26.932922 0.68228531 -2.9921143 8.725667
28.532753 0.58318532 -3.1356649 8
29.539333 0.57630163 -3.0766621 8.0465002
31.06506 0.65526259 -3.1129458 8.0515003
-7.781589 0.84474629 -2.8302221 9.1059999
-6.9051437 1.0973675 -3.0783143 9.8803005
-6.4905629 0.84969562 -3.0466037 10.5
-2.8354223 0.96467298 -3.0021803 11.639735
-2.7947185 0.99958378 -2.9844842 10.948259
-2.1760921 0.84182876 -2.8785045 13.5185
9.3374414 1.0219995 -2.9968033 9.1219997
10.767828 0.82857108 -3.021925 9.1149998
13.472925 0.84366697 -3.080467 10.116375
13.668414 0.86352217 -3.173182 10.11475
17.534355 1.0101984 -2.9256525 10
24.715399 0.88921916 -3.0718753 10.066599
24.974781 1.02829 -3.1093431 9.7829657
25.36039 1.1484263 -3.1473422 9.7412777
25.740986 1.1342381 -3.1419821 9.8224382
26.248301 1.0738573 -3.1245334 10.136625
26.571798 1.1157985 -3.1590486 9.9523754
26.87006 1.0545446 -3.1532776 10.061
-6.8441181 1.3614734 -3.1922145 12.0665
-2.8394864 1.3639256 -2.9872766 12.076345
-2.7935143 1.3970886 -2.8837328 14.5
25.502129 1.2311794 -3.159934 9.0834999
25.808172 1.2154174 -3.1647067 9.0818129
27.028677 1.2419858 -3.0640459 11.034083
27.397202 1.2873095 -2.959259 11.039875
28.01886 1.2395871 -3.1762958 10.0615
-2.8535836 1.7897729 -2.983314 12.075411
-2.7980366 1.7684503 -2.9517732 12.625
31.914799 1.8685405 -3.0136833 11.038
44.784378 1.9278777 -2.8195572 9.0524998
-2.8643224 2.1702766 -3.0162611 12.305822
7.2396827 2.2849319 -2.9645774 14.116752
7.7265291 2.1395075 -2.8065262 9.0979996
8.2829418 2.2643549 -2.9383059 12.5326
8.4191809 2.3362465 -3.0346525 12.821266
15.575617 2.3337259 -2.9534442 13.393375
15.787958 2.3461475 -2.9883509 13.0995
18.383276 2.173938 -2.8899269 10.13
18.49733 2.1679018 -2.972744 13.126214
23.870094 2.3692768 -2.9857843 10.1415
26.686296 2.2242453 -3.0045488 12.955415
26.973724 2.1288435 -3.019788 12.855523
27.364056 2.1416862 -3.0560477 12.685114
27.781069 2.1573894 -3.0409899 11.937568
31.112894 2.3338532 -2.9322653 11.569833
31.230072 2.3189659 -3.0729041 12.0555
34.377819 2.3139579 -3.0654356 9.6325006
34.538303 2.2515955 -3.1170368 9.1665001
41.133011 2.3355851 -2.8645134 9.1690006
42.284004 2.2955003 -3.1086426 9.1697502
42.428154 2.3240175 -3.0273285 9.1389999
-2.8807154 2.5645287 -3.0223064 13.31336
-2.7161036 2.6838603 -2.9450042 12.063499
-2.2671046 2.6768832 -3.1255889 13.584126
-1.7871723 2.6936867 -2.9151392 13.6165
-1.4880269 2.6135285 -2.9819951 11.697225
-1.0340405 2.6689434 -3.0887706 13.113999
-0.49650437 2.682559 -3.0151021 12.685946
-0.27219114 2.6403673 -2.9845085 12.621708
0.17717902 2.6533418 -2.975116 12.788417
0.51862532 2.7303646 -3.1581917 12.466332
1.6643822 2.7320638 -3.0147939 13.5165
7.2176037 2.4618857 -2.9356668 14.123668
8.3973837 2.4223626 -3.0933983 12.811833
8.4174147 2.4421403 -3.0407851 13.117569
8.9416294 2.6662648 -2.9763095 13.640041
9.8528376 2.7865446 -2.8894107 13.856917
10.248167 2.7970359 -2.9179342 14
12.208501 2.7965751 -3.07026 14
15.559953 2.5849307 -3.0025682 12.365485
15.859417 2.5922716 -2.9816287 14.12039
23.769157 2.5859103 -3.0067213 12.136484
24.098429 2.4547176 -3.1029577 13.173
26.712406 2.4134898 -3.073282 13.540251
31.936497 2.7412858 -2.9910657 12.441142
32.113426 2.6120927 -2.8866372 11.0895
41.158684 2.6247096 -2.9175129 10.0515
42.299526 2.426306 -3.0365713 9.4601669
44.128521 2.7174041 -2.9723251 9.4524994
44.979546 2.630451 -2.8585615 9.1695004
0.070916176 3.1083918 -3.1669805 12.13825
0.74222469 2.8274214 -3.0300913 15.121
1.4450521 2.8808477 -3.1986122 13.113
1.6905689 2.8794417 -3.1771898 12.1115
2.4440231 2.8989265 -3.1649637 12.114
2.8804398 2.8555644 -3.1691856 12.117
3.9774065 2.9122307 -3.1964664 13.1135
8.3714581 3.0379632 -2.9863541 14.882062
8.4210148 3.050457 -3.0281796 14.125799
9.7838831 3.0095577 -2.9734704 14.730125
10.199241 2.8171813 -2.9877908 14.612526
10.608449 2.8226757 -3.0267098 14.566668
11.031295 2.8362434 -2.9794741 14.635431
11.426706 2.8467317 -3.0260971 14.113578
11.802754 2.8494189 -2.9746149 14.231797
12.185229 2.8470294 -2.9857681 14.046397
12.53776 2.8438573 -2.9952495 14.124527
12.949839 2.8603499 -3.0072975 13.417575
13.332884 2.867022 -2.9791052 14.090624
13.89556 2.8849499 -3.0079308 14.2005
14.231068 2.8791564 -2.9945068 13.583273
14.614124 2.8809106 -2.9845245 13.425022
14.998705 2.8903091 -2.9022851 13.637905
15.295182 2.9057891 -2.8766289 14.14225
15.928248 2.8177276 -2.8430042 15.1545
16.147726 2.8595457 -3.1504712 15
16.481781 2.8596492 -3.0842381 14.571
16.907696 2.8710861 -2.939558 14.571125
17.363569 2.8787558 -2.9835026 14.482415
17.789721 2.8877459 -2.9486499 14.5519
18.267384 2.8882191 -2.9357367 13.91675
18.661497 2.8942144 -2.9628394 13.691361
19.040161 2.8934898 -3.0027313 13.395
19.406452 2.8916056 -3.0292072 13.4064
19.838446 2.9022825 -2.9824834 13.680108
20.165775 2.9223268 -2.8495083 15
20.6427 2.9161835 -2.9179277 13.578625
21.023586 2.9070714 -2.9698718 12.660611
21.422941 2.9362862 -2.9808531 13.434501
21.677849 2.9282191 -3.0282829 13.0435
