# .PCD v0.7 - Point Cloud Data file format
VERSION 0.7
FIELDS x y z intensity
SIZE 4 4 4 4
TYPE F F F F
COUNT 1 1 1 1
WIDTH 1374
HEIGHT 1
VIEWPOINT 0 0 0 1 0 0 0
POINTS 1374
DATA ascii
-5.1175971 -0.94483507 22.109051 5.2857141
0.9407773 -0.86523557 22.085318 0.83333331
4.4301705 -0.89553505 22.102619 3
-5.1293263 -0.69593281 22.107006 6.25
0.7113483 -0.78107667 22.112469 1
0.92680466 -0.76970732 22.083801 1.5
4.3397851 -0.70461416 22.115093 4
-5.2585907 -0.45139924 22.040894 7
3.294522 -0.58099449 22.067165 5
4.3335304 -0.5131591 22.109861 5
-5.241456 -0.22437181 22.128845 7
-5.0905108 -0.27191064 22.080833 7
2.7827883 -0.39957583 22.184414 6
4.325851 -0.32356784 22.096571 6
-5.261518 -0.068413951 22.120062 7
-5.1269727 -0.066051573 22.076309 7
-4.9851637 -0.046918817 22.075708 7
-5.2837214 0.10435682 22.075472 7
-5.1481743 0.053551812 22.049997 7
2.6833985 0.004221648 22.106459 7
4.7202587 0.080151066 22.17617 7
-5.2553854 0.26088956 22.058435 8
-5.1323853 0.25455528 22.119944 8
2.5662727 0.20716289 22.174896 8
4.714375 0.27937138 22.192854 8
2.6486862 0.41229978 22.145617 9
-5.273211 0.62391067 22.077835 8.5
-5.3480716 0.91922855 22.136227 9
-5.295361 1.0526128 22.119175 9.5
-5.3123493 1.3272016 22.074005 10.5
-0.72188473 1.9556923 22.187464 12
-0.43483067 2.0461814 22.177776 10
-0.82114983 2.3784764 22.180693 11
-0.76551104 2.4286137 22.166985 11.5
64.089851 11.665264 22.111403 11
63.684696 12.88073 22.152334 12
63.511047 13.142691 22.044643 12
64.069992 13.071962 22.183903 12
63.67701 13.271631 22.074268 12
63.820728 13.603923 22.038086 12
63.48085 14.709863 22.044182 13
63.471355 14.950068 22.069542 13
63.539459 16.62706 22.179073 14
63.677601 16.746265 22.15451 14
63.793114 18.126463 22.063185 14
63.747066 18.273136 22.098404 14
-5.0994034 -0.92024803 22.268284 5.2857141
1.0459657 -0.81957579 22.377794 0
2.7710366 -0.89831614 22.308897 3.5
2.8534207 -0.8329314 22.395496 4
-5.2047119 -0.62867337 22.229616 6
-5.1205449 -0.63923329 22.294956 5.8888888
0.62823558 -0.78846383 22.239035 1
0.92725635 -0.72815806 22.242586 1
1.0304466 -0.73729956 22.291557 1
2.5372214 -0.61947495 22.227234 5
2.7394769 -0.60064459 22.257727 5
-5.101985 -0.58149904 22.275299 6
2.6040242 -0.40637517 22.239655 6
4.4022121 -0.52601409 22.314774 5
-5.2333531 -0.27493945 22.239981 6.6666665
-5.1358929 -0.23573448 22.286482 7
3.6994972 -0.35745162 22.368582 6
4.7121897 -0.30755597 22.372318 6
-5.2080703 -0.041072443 22.317114 7
-5.1341529 -0.12882236 22.368759 7
3.5744543 -0.15993816 22.351452 7
-5.2039857 0.12245865 22.221102 7
-5.0903254 0.0093448628 22.255404 7
2.5853729 0.0023222715 22.200102 7
-5.1129026 0.26561362 22.328566 7.8571429
2.8529205 0.23117651 22.379662 8
3.5236015 0.24471346 22.328518 8
-5.2678747 0.5585115 22.278137 8
4.5348883 0.46071523 22.386372 9
-5.2239156 0.64777362 22.355072 8
-5.2844963 0.95281249 22.282169 9
-5.2417736 1.0834358 22.36319 9
-1.2774606 1.0826221 22.292744 9
-1.3027601 1.3202145 22.325634 9.25
-1.1202552 1.3604056 22.327259 10
-0.6845026 1.2401631 22.390381 10
-1.2673589 1.4630327 22.352892 9.666667
-1.0998255 1.5018297 22.382908 9
-0.90533233 1.4896319 22.368498 10.5
-1.0752478 1.6817592 22.347109 12
-0.85689175 1.7526374 22.304781 10.25
-1.4152117 1.9767064 22.361813 12
-0.89568043 1.9454281 22.341106 11.5
-0.77953959 1.9512811 22.365902 12
-0.53706676 1.9196736 22.37121 10.666667
-1.2778916 2.1664665 22.222548 10
-1.058533 2.1181397 22.228668 10.75
-0.88074028 2.0797977 22.360317 11.5
-0.70273399 2.1586239 22.263538 11
-0.52852881 2.1015961 22.341429 11.5
-1.4768214 2.2824576 22.383114 10.5
-1.0425649 2.285954 22.382076 12.5
-0.92305601 2.3603399 22.299303 12
-0.45458114 2.3362947 22.396828 11
-1.3041707 2.4822059 22.295395 12
-1.1078379 2.5100405 22.309752 12
-0.92267054 2.5592282 22.312794 12.2
-0.7088182 2.535161 22.327843 11
-0.50849783 2.5045526 22.367477 12.5
-1.2574097 2.6475222 22.346342 12
-1.165817 2.7379959 22.366703 11
-0.99975824 2.7321839 22.278711 12
-0.72079551 2.658834 22.310932 11.75
-1.4829597 2.9275882 22.338707 13.333333
-1.1530282 2.8772635 22.387226 14
-0.67711097 2.8646748 22.360722 13
-0.53744638 2.9767089 22.374563 14
63.660702 12.939415 22.21578 12
63.907623 13.655369 22.333553 12
63.394226 14.698803 22.318426 13
63.5168 14.784334 22.281807 13
63.840992 15.766724 22.336866 13
64.044296 15.915286 22.319714 13
64.086121 16.205231 22.212769 13
62.49765 16.431187 22.36042 14
63.025497 16.569862 22.259668 14
63.84116 16.778206 22.308945 14
63.631905 17.92091 22.390549 14
63.701202 18.074032 22.299591 14
-5.1424932 -0.85107028 22.478657 7
1.0473354 -0.98284948 22.576376 0.5
3.4647212 -0.96484137 22.543415 3
4.7022662 -0.90306681 22.537466 3
-5.0927458 -0.6751256 22.508501 6.1999998
0.75485969 -0.79075152 22.444572 1
0.9345932 -0.748483 22.530138 1.1666666
1.0196497 -0.7456941 22.489967 1.5
2.7406309 -0.6126129 22.520124 5
2.8807986 -0.60793042 22.46368 5
3.479455 -0.77067041 22.461227 4
4.7428198 -0.71408594 22.539721 4
-5.1161218 -0.41785419 22.529177 7
3.4666705 -0.56904066 22.437847 5
4.6635084 -0.49962181 22.428944 5
-4.9612741 -0.22390902 22.47522 7
4.3762555 -0.32083452 22.400249 6
-5.068398 -0.091592826 22.508417 7
-4.9836965 -0.13588455 22.504452 7
2.8351212 -0.18389601 22.558382 7
4.3852854 -0.1206246 22.471445 7
4.8414454 0.074499264 22.588915 7
-5.2376432 0.35059828 22.483929 7.5
-5.0609736 0.27657992 22.49778 8
-4.9048748 0.23827209 22.564009 8
2.6373384 0.22452487 22.545788 8
4.8520451 0.27604246 22.583426 8
2.7213879 0.4306851 22.557808 9
-5.1555953 0.71154821 22.579742 9
-5.213264 0.84598029 22.544731 8
-5.2142916 1.3428639 22.47514 9.5
-1.7130789 1.2769942 22.547302 9.666667
-1.5698519 1.3006663 22.519693 9
-1.2546849 1.3332382 22.486181 9
-1.113892 1.305899 22.462206 10
-0.75157714 1.3838205 22.593569 10.5
-1.6710032 1.4602103 22.533396 10
-1.5839367 1.5684737 22.517044 11
-1.2886717 1.4922321 22.51075 10.5
-1.1349136 1.5585402 22.432821 9.333333
-0.99652529 1.4177332 22.496517 10
-0.67593336 1.5180666 22.53693 9
-1.8030105 1.7831477 22.51092 10
-1.5281854 1.7316206 22.528652 11
-1.3096849 1.6848609 22.529203 10.4
-1.093119 1.6926599 22.498049 11.333333
-0.83608449 1.6594825 22.508738 9.75
-0.73832655 1.6999462 22.466536 10.625
-0.45489836 1.7185458 22.574474 10.5
-1.5265043 1.918395 22.49115 11.5
-1.3075447 1.9363098 22.461258 10.75
-1.157899 1.9626014 22.585403 13.5
-0.87791824 1.9201901 22.525002 10.2
-0.67248458 1.8882385 22.536491 12
-0.52120554 1.9348443 22.547531 10.6
-0.32949781 1.936213 22.439436 10
-0.1952424 1.9861085 22.455011 10
-1.5155827 2.0993316 22.553673 12.333333
-1.339033 2.1016707 22.528141 11
-1.0407522 2.1231365 22.529203 11.5
-0.92542803 2.0904942 22.444172 11.5
-0.71575558 2.0894437 22.477055 10.8
-0.5328902 2.1372852 22.468058 12.333333
-0.3345139 2.037714 22.459665 11.5
-0.10414485 2.1553736 22.546432 10.5
-1.4937139 2.2855043 22.424965 10.5
-1.3487265 2.3798785 22.424355 10.5
-1.0384541 2.246882 22.479361 12
-0.86073333 2.3059666 22.478851 12
-0.72980469 2.294548 22.461935 13.333333
-0.50858605 2.2947371 22.440603 11.5
-0.28772974 2.2162724 22.482052 10
-0.10043448 2.2133594 22.568316 12
-1.3118885 2.4795005 22.446608 12.25
-0.69646037 2.5046444 22.433914 12
-0.48120189 2.4877529 22.519623 12
-0.33879322 2.5148056 22.548172 11.285714
-0.11956763 2.5301473 22.579254 14
-1.2954739 2.6347406 22.444725 11.666667
-1.1563882 2.7552884 22.477726 12
-0.65235519 2.7739334 22.516218 12.333333
-0.45443189 2.7356758 22.503269 12.5
-0.30633497 2.6713171 22.535732 11
-1.2756732 2.9068313 22.44062 12.5
-1.1041273 2.8679097 22.466024 11.666667
-0.91656703 2.8359585 22.439829 12
-0.66430163 2.8463049 22.506981 12
-0.46684885 2.8810287 22.576714 14
-0.25598145 2.8256371 22.599504 13
-1.4346588 3.0480514 22.479649 12
-1.2444963 3.0262077 22.598129 11
-1.1140428 3.0518119 22.523066 12.666667
-0.8500821 3.034354 22.562531 12.666667
-0.72620964 3.0051658 22.463259 12
-1.1877677 3.2809842 22.578693 12
63.922661 11.715676 22.532501 11
66.155273 12.046815 22.533253 11
63.729111 12.768106 22.525574 12
63.429062 13.095818 22.42923 12
63.647724 13.340188 22.442949 12
63.868645 13.34691 22.568382 12
63.895382 13.471931 22.49345 12
62.786057 14.762392 22.479107 13
63.355453 14.607612 22.546455 13
62.853241 14.844781 22.494825 13
63.590221 14.834194 22.518494 13
63.687191 14.834157 22.440794 13
63.579029 15.761728 22.547892 13
63.72139 16.781345 22.409859 14
63.213371 16.814157 22.484579 14
63.08955 17.037737 22.581537 14
63.26545 17.164322 22.407219 14
63.570492 17.986561 22.430645 14
63.679859 17.939035 22.462677 14
63.590523 18.080839 22.554026 14
63.690144 18.053938 22.413027 14
-4.7655668 -1.2207599 22.684023 6
-4.8731079 -1.0020906 22.678741 5
-5.0537605 -0.9197548 22.750517 5.75
-4.9401903 -0.94702703 22.772194 5
1.0732479 -0.95623422 22.772161 0.5
3.8173213 -0.98487365 22.796719 3
-5.0461626 -0.7037341 22.704298 6.5
-4.9368973 -0.71864522 22.737394 6.5
0.79159713 -0.69160122 22.681877 2
0.92961979 -0.75402355 22.705559 1.4
1.0799427 -0.71900183 22.700121 1.5
2.7045474 -0.79511517 22.772461 4
3.8120198 -0.77665013 22.796621 4
-5.1028471 -0.53896689 22.709015 7
2.6761551 -0.59204161 22.765202 5
3.510201 -0.59740984 22.733847 5
3.8002014 -0.57342726 22.775169 5
4.7566543 -0.53353512 22.637901 5
-5.0660272 -0.24460617 22.701649 7
-4.9294887 -0.29164213 22.728596 7
3.7816725 -0.37234741 22.731979 6
4.7586527 -0.32592261 22.69739 6
-5.1513748 -0.036310699 22.726192 7
-4.9337788 -0.067687362 22.738449 7
3.6117284 -0.17159452 22.766176 7
4.7527328 -0.12296607 22.757463 7
-5.0618439 0.07908836 22.650124 7.3333335
-4.8796072 0.18453319 22.728371 8
-5.0594864 0.27283949 22.669054 8
-4.9422226 0.2281017 22.761906 8
-5.1554775 0.58942139 22.7966 8
4.6991858 0.46219409 22.736259 9
-5.1464901 0.66842449 22.724236 9
-0.2937758 0.78595155 22.724451 8
-5.2016335 1.0285435 22.674149 10
-5.1722317 1.0688031 22.729496 9.8000002
-1.6030316 1.1440054 22.603487 9
-5.0763011 1.2103933 22.78027 10
-1.2511225 1.3087078 22.714928 10.333333
-0.69601518 1.3224251 22.709564 9.5
-5.1917515 1.4058381 22.682915 10
-1.6344477 1.4917587 22.700171 11.333333
-1.5314765 1.4292612 22.606112 11
-1.2880151 1.4601679 22.665226 11
-0.7079643 1.4952087 22.625484 9.5
-0.51158702 1.5273746 22.727482 9.25
-2.0062804 1.6061224 22.722601 9
-1.668066 1.7614564 22.64994 11.333333
-1.5691533 1.748135 22.632879 13
-1.3204455 1.7952474 22.726116 11
-1.1730003 1.6155863 22.654373 9
-0.80089259 1.6401739 22.708027 11
-0.76349044 1.6483072 22.676945 10
-0.51037282 1.6368881 22.724991 10
-0.094536781 1.7880434 22.702 10
-1.7248303 1.8927741 22.702547 11.666667
-1.3865865 1.9306701 22.716017 10.333333
-1.1069956 1.924245 22.6367 10
-0.93153733 1.9237738 22.6327 10
-0.4995366 1.8685693 22.726032 10.25
-0.32226577 1.8475555 22.738676 11
-0.15813756 1.9519883 22.743643 12
-1.7205753 2.1303148 22.626978 12.5
-1.5257527 2.1373959 22.640299 10.333333
-1.2964344 2.072547 22.636457 10
-1.08214 2.0893734 22.710941 13
-0.48644134 2.1673362 22.756584 11
-0.3501702 2.0346532 22.763948 9.5
-0.071901977 2.1488757 22.731655 11.5
0.037124634 2.0618632 22.762167 13
-1.3211607 2.2383289 22.740086 10.75
-1.1561918 2.2662342 22.603554 14
-0.81229031 2.2380199 22.644373 11
-0.77240205 2.212882 22.691948 10.5
-0.26544595 2.2904105 22.658329 12.5
-0.12800471 2.3360622 22.734739 11.666667
0.10527706 2.3670218 22.703808 14
-1.4496896 2.5139914 22.654356 11
-1.1143597 2.5965099 22.653107 10
-0.29533944 2.5047054 22.691729 11.8
-0.14133945 2.5195198 22.705267 11.714286
-0.41411543 2.7121518 22.622971 10
-0.22933388 2.6624959 22.688179 14
-0.087456226 2.7260568 22.728754 12.666667
-1.307705 2.9302597 22.697155 10
-0.91269892 2.9775777 22.769257 10
-0.32958692 2.8723495 22.657368 11.8
-0.14767407 2.943805 22.706865 12.333333
-1.3703842 3.0762329 22.631807 14
-0.70491099 3.0233548 22.686642 12.5
-0.26016355 3.0704119 22.767765 13
-0.14472651 3.0619392 22.724733 12
-1.1208885 3.2388551 22.765862 12
-0.99692148 3.4577167 22.743971 12
0.83873177 3.6837754 22.780682 10
0.93432903 4.2284737 22.769865 11
62.362953 12.784513 22.642582 12
62.423508 12.792857 22.784279 12
62.699165 12.722934 22.622574 12
63.295998 13.098623 22.777546 12
63.496635 13.061151 22.76726 12
63.791767 13.595304 22.780495 12
63.732063 13.655911 22.742903 12
63.866291 13.64101 22.629824 12
63.690792 14.933863 22.715675 13
63.605515 15.448895 22.748894 13
63.567459 15.641043 22.694788 13
62.335831 16.505089 22.670895 14
63.107536 16.436968 22.712124 14
63.066887 16.954441 22.784002 14
63.231834 16.990475 22.761909 14
63.358429 17.215534 22.635078 14
63.415642 17.330553 22.741051 14
63.389099 17.792877 22.731344 14
63.563309 17.936104 22.702412 14
63.592991 18.251562 22.787949 14
63.647919 18.269779 22.749996 14
-4.7357492 -1.1879876 22.955992 6
0.74057961 -1.1076198 22.984921 5
-5.001236 -0.92971033 22.845383 5
-4.949523 -0.92429429 22.923376 5.1999998
2.8533478 -0.83917534 22.929384 4
4.60115 -0.90428972 22.910721 3
-5.0634937 -0.63726974 22.907219 5.5
-4.964406 -0.6371085 22.920052 6.1999998
0.94743359 -0.7557435 22.830362 1
1.1169708 -0.73030901 22.898855 1
2.9564538 -0.60904813 22.999928 5
4.557888 -0.71067089 22.899254 4
-5.006917 -0.58427942 22.930567 6
-4.9416604 -0.56462413 22.919981 6.3333335
4.5563865 -0.51164418 22.922707 5
-5.0516071 -0.24870607 22.861607 7
-4.9190149 -0.24550733 22.904106 7
3.0596094 -0.3947503 22.986073 6
3.5301456 -0.37667078 22.858261 6
4.5492229 -0.31869245 22.913914 6
-5.0363808 -0.12073542 22.878847 7
-4.9435964 -0.14018781 22.944897 7
0.47305042 -0.092248015 22.983059 7
4.5274172 -0.12967072 22.818178 7
-5.0121365 0.095222041 22.878036 7.5
-4.98176 0.028073665 22.844774 7
2.8947268 0.011704072 22.9431 7
4.917099 0.10010144 22.987118 7
-5.091629 0.28951544 22.882097 8
-4.970767 0.26138633 22.839617 8
0.84523296 0.27332249 22.975479 7
2.7589374 0.21686406 22.981014 8
2.8938551 0.22225904 22.820259 8
3.5639076 0.23536597 22.810753 8
4.9083982 0.30269191 22.983936 8
-5.1091623 0.51930922 22.927876 8.1999998
-0.94458675 0.57647479 22.909 8
2.8642669 0.4277032 22.907347 9
-5.1088848 0.68611008 22.916523 8.75
-1.2963233 0.71899521 22.877869 8
-1.1630826 0.78071302 22.8834 8
-0.91516757 0.61566043 22.909622 8
-0.55413562 0.68099004 22.906679 8.333333
0.38772392 0.6195783 22.995098 8
0.43694448 0.66754162 22.995983 8
0.68695021 0.70526689 22.990379 11
0.9173274 0.7699675 22.978634 9.5
-5.1648641 0.95125914 22.914143 9.1999998
-1.3117495 0.81113517 22.969294 8
-0.52363563 0.83395541 22.874382 8.5
-0.21964812 0.90025413 22.91407 9
-0.19738102 0.98098147 22.947596 10
0.76573282 0.88517284 22.964611 12.3
0.82844639 0.92290127 22.959808 11.7
1.0006695 0.99853605 22.989748 8
-5.1465969 1.1687531 22.853943 10
-0.81356144 1.1728497 22.933624 13
-0.45921952 1.0550114 22.933043 8
-0.30490738 1.1233249 22.865356 9.5
0.87638938 1.0874947 22.963486 11.4375
1.0015507 1.0287533 22.961987 8
-5.3174548 1.2495471 22.947704 10
-5.0703416 1.2812457 22.954105 10
-2.4763083 1.283926 22.970545 9
-2.3525422 1.3450781 22.952717 10
-1.6853638 1.3121516 22.931324 11
-0.56946361 1.2682345 22.912762 8.8000002
-0.30587721 1.2927725 22.939924 10
0.89217186 1.2151444 22.983341 11
-2.6285024 1.410201 22.979185 9
-2.5147882 1.4003695 22.916405 9
-0.53393978 1.4971441 22.819298 10
-1.7273407 1.6009617 22.837347 9
-1.3321558 1.7671138 22.807634 10
-0.60294527 1.6470183 22.8465 9
-0.25243044 1.68399 22.878195 9.666667
-0.14274883 1.7054695 22.85309 10.5
0.036973476 1.6581445 22.864513 9
0.4968974 1.7376959 22.992176 9
-0.31995705 1.9800003 22.874931 10
-0.073063105 1.9850895 22.968843 9
0.09307877 1.9522811 22.922119 10.75
-0.22653008 2.0617445 22.857319 13
-0.059467573 2.0715935 22.908518 11
0.12061981 2.0859869 22.879862 11.666667
0.21525514 2.0644846 22.995731 11
0.11146069 2.2822287 22.934412 14
0.30123007 2.2947974 22.910952 12
0.58182335 2.3804259 22.966223 10
-1.9204998 2.4912348 22.863718 10
0.16024499 2.4711485 22.929239 12.666667
0.56573677 2.5631597 22.906658 9
0.64803457 2.4910967 22.950663 9.5
0.83567429 2.4185581 22.912498 9
-0.02880168 2.6564653 22.917532 12.5
0.12390542 2.6511159 22.924866 14
0.25487328 2.6413991 22.98489 10
0.54729271 2.6427739 22.965727 9
0.65788335 2.71612 22.941725 9
-0.01513803 2.8993359 22.810699 13
0.08683151 2.8820474 22.929365 14
0.54405308 2.9305537 22.920662 11
-0.20640713 3.1504729 22.839138 11
-1.9540772 3.3714275 22.87224 11
-1.1344293 3.3237631 22.83025 11
0.36094999 3.5117335 22.98217 11
0.52789307 3.5545378 22.927521 10
0.46673107 3.7457695 22.949116 10
0.73299026 3.7376297 22.858496 10
0.48523393 3.8833935 22.915237 10.333333
0.6342392 3.9210932 22.832178 10
0.49095839 4.2736568 22.953945 13.5
0.28190088 4.4585447 22.993645 12
63.387718 12.815077 22.903492 12
63.668388 13.029538 22.823235 12
63.676456 13.486246 22.935202 12
63.725948 13.637428 22.957941 12
63.333275 14.509957 22.882851 13
63.62146 15.501888 22.896391 13
63.580917 15.636185 22.940592 13
63.62228 15.718782 22.938526 13
63.649586 15.833936 22.97287 13
63.056438 16.945772 22.960379 14
63.36964 17.504498 22.92952 14
63.543087 17.571823 22.912539 14
63.348465 17.652304 22.918549 14
63.541359 17.720621 22.896168 14
63.496941 17.866869 22.860462 14
63.615742 17.935472 22.868769 14
63.516369 18.062822 22.908422 14
63.600002 18.021208 22.8759 14
63.661747 18.703491 22.915308 14
-4.9081469 -1.0158027 23.103464 5.5
2.8189342 -1.0444096 23.022377 3
-5.0015578 -0.90229851 23.005863 6
-4.9761562 -0.92153996 23.095713 5.6666665
0.72884595 -0.93889862 23.106224 2.5
2.735256 -0.83611035 23.033676 4
3.7993133 -0.99166083 23.113815 3
-5.0325952 -0.62896568 23.01067 6
-4.9253178 -0.69570762 23.111122 6.1666665
0.5603385 -0.64010513 23.022726 7
0.70946664 -0.66862816 23.127935 5.1614585
0.80511856 -0.67759454 23.188322 6
1.1171489 -0.74120843 23.006367 1
2.7077901 -0.62537223 23.030014 5
3.885078 -0.77434266 23.089329 4
4.7157192 -0.71022803 23.144524 4
-4.9765697 -0.58162057 23.034748 6.25
0.5965507 -0.56306612 23.177988 4
0.67631888 -0.50729042 23.137482 5.1714287
0.96786404 -0.45824718 23.107288 7
2.7285399 -0.40865219 23.076883 6
3.7799811 -0.56291521 23.148602 5
3.9091337 -0.55774194 23.118494 5
4.7837973 -0.50275218 23.150871 5
4.9469528 -0.49462187 23.148968 5
-5.0367613 -0.27870703 23.13163 7
-4.9330316 -0.25350747 23.14566 7
0.57195669 -0.3067669 23.142372 5.6666665
0.65817803 -0.31859905 23.126543 6.2125001
0.89549685 -0.33138585 23.054209 7
3.9279628 -0.34178948 23.198992 6
4.7749147 -0.30386722 23.13167 6
4.9367218 -0.29766321 23.114967 6
-5.0417743 -0.148735 23.181389 7
-4.9710846 -0.090321615 23.079336 7
0.56969929 -0.078966439 23.14278 7
0.64012182 -0.097573422 23.132116 6.826087
3.6482167 -0.14888661 23.195732 7
-5.049036 0.18965542 23.105791 8
-4.9397302 0.10934921 23.124464 7.5
0.57085127 0.12329594 23.139296 7.7555556
0.63754618 0.13115737 23.136116 7.5384617
3.8255916 0.061745204 23.066021 7
-5.065371 0.30054554 23.111647 8
-4.9451885 0.25424728 23.116997 8
0.57230771 0.28727916 23.127853 8.2631578
0.6226294 0.29444394 23.135986 8.0740738
0.85403824 0.32579106 23.023436 7
3.7930541 0.26930082 23.04953 8
-5.045836 0.53483653 23.12443 8.1999998
-4.9815416 0.49034294 23.056217 8
0.54731268 0.50154656 23.13275 9.3435373
0.6379354 0.48598936 23.131207 8.3157892
2.7930732 0.4199239 23.059757 9
3.6888103 0.474392 23.058632 9
4.7220025 0.4886409 23.152981 9
0.53475869 0.69049251 23.113901 10.030303
0.66833562 0.72082216 23.089218 9.1499996
0.86159325 0.71876049 23.065826 9.25
-5.1132979 0.91298741 23.081345 9.1999998
-0.90281391 0.81901276 23.085152 11
-0.72360367 0.99516487 23.063322 8
-0.44165087 0.86839998 23.08128 9
-0.22969335 0.89676458 23.060001 11.25
0.51114774 0.9125998 23.124016 9.3888893
0.687154 0.86651099 23.07914 10.45
0.85226488 0.88899744 23.055593 9.4285717
1.0352207 0.94882077 23.069962 8
-5.0425806 1.0125217 23.133902 9
-1.1064801 1.0522103 23.022945 8
-0.88645983 1.003197 23.04245 12
-0.51521575 1.1104326 23.070721 8.5
-0.22677033 1.0475696 23.054092 12.666667
-0.110585 1.1525817 23.101299 10.25
0.4909952 1.1251646 23.13063 9.9285717
0.75405985 1.0750406 23.110523 11
0.85051554 1.1018217 23.076424 10.6875
1.1015501 1.0015377 23.076847 8
-5.3042455 1.3069341 23.113724 10
-5.1301584 1.2771517 23.075191 10
-0.46833134 1.3026452 23.017218 9
-0.29702827 1.2675903 23.057999 10.125
-0.1302495 1.3213608 23.049997 13.5
0.018201172 1.246681 23.178833 8
0.39581013 1.3737426 23.185961 13
0.49557659 1.3016659 23.118294 10.28
0.70348674 1.3410897 23.126291 11.333333
0.89668888 1.2680169 23.087151 12
-5.2142777 1.5600942 23.060312 10
-5.0880942 1.4010706 23.074141 10
-2.5044036 1.4166703 23.166403 11
-2.3507729 1.4916357 23.042389 10.333333
-0.43489331 1.5381117 23.034061 9
-0.29829216 1.444896 23.090446 11
0.014339447 1.5677088 23.035732 10
0.34814596 1.4421936 23.001127 9
0.48671472 1.4878823 23.119295 10.902439
0.71436089 1.50945 23.106247 8.7142859
-2.4214394 1.6856842 23.042896 11
-2.3254316 1.7152296 23.100021 11.333333
-0.29755068 1.7851001 23.046045 12
0.10402216 1.7056131 23.143702 9.75
0.36757797 1.7213751 23.12488 10.857142
0.48778811 1.6968948 23.123789 11.32258
0.70345098 1.6195266 23.086979 8.4444447
0.82174301 1.7606461 23.020697 9
-2.4627774 1.9505796 23.08428 13
-2.3161397 1.8437982 23.052929 12
-0.076176912 1.8236139 23.147198 10
0.11004245 1.8789815 23.114315 12
0.39036956 1.9067048 23.132601 11.571428
0.45900473 1.8817596 23.141586 12.083333
0.73059082 1.8729699 23.030155 9
-2.5219164 2.1155167 23.148424 10
-2.3735855 2.0811706 23.170448 13
-0.093083501 2.1587296 23.100666 12
0.15120554 2.096344 23.099138 11.5
0.35310131 2.1038811 23.137182 12
0.46221223 2.0771248 23.137737 12.294118
-2.693449 2.2604809 23.184437 10
-2.5076356 2.2466383 23.120733 13
-0.0012512207 2.2770188 23.009237 13
0.38074651 2.2901654 23.141796 12.111111
0.45850435 2.272367 23.13868 12.444445
0.83414459 2.3316574 23.091087 9
1.0585575 2.3249276 23.132713 9
0.31733471 2.5223749 23.148966 11.9
0.49122506 2.5090377 23.113184 11.142858
0.63574982 2.537194 23.042549 9
0.3209098 2.7102919 23.127016 11.909091
0.46427548 2.6973503 23.15036 11.166667
0.60469818 2.6196916 23.063387 9
0.3335073 2.9058342 23.137371 13
0.44309023 2.9153101 23.184916 13
-1.9922643 3.1662202 23.189011 12
-0.43334723 3.1100512 23.166996 13
-0.06777364 3.1241534 23.119562 11
0.33926025 3.0717354 23.123482 12.5
0.43544316 3.131263 23.138941 12
0.74762344 3.1538656 23.186813 10
0.91082859 3.0552068 23.130835 10.25
0.18269825 3.3866949 23.192444 11
0.34430885 3.2220421 23.162317 14
0.44262779 3.2871182 23.143826 14
0.94112206 3.2082319 23.041237 11
0.17686224 3.421304 23.121904 11
0.33233023 3.5452824 23.082052 10.75
0.44170481 3.5753427 23.111855 12.5
0.61300278 3.5382025 23.077978 10
-2.0402424 3.73049 23.123825 13
0.34755361 3.6966004 23.116495 11.25
0.46440735 3.6996973 23.073944 12
0.36932087 3.8633444 23.047377 11
0.44098577 3.8633223 23.068428 12.5
0.36950263 4.152699 23.093798 12
0.4473604 4.0725017 23.053446 13.333333
0.10192108 4.3625531 23.104422 12
0.48626629 4.2955151 23.163267 12.333333
0.62710744 4.265214 23.096386 12
0.16504399 4.5148554 23.154556 11.666667
0.24265085 4.5210457 23.094395 11.75
0.4758749 4.5219584 23.126583 12
0.6507085 4.4886284 23.077913 12.666667
0.42100179 4.643321 23.090797 13.5
0.42390913 4.8348713 23.123964 14
63.798119 11.662038 23.027342 11
66.016182 12.064795 23.130737 11
63.761047 12.981491 23.108891 12
63.547634 13.340935 23.150906 12
63.68084 13.379784 23.199368 12
63.727913 13.482061 23.080944 12
63.682816 13.645065 23.131872 12
63.782124 14.019487 23.069254 12
63.818073 14.0509 23.049908 12
63.997353 14.436028 23.036327 13
63.310123 14.692545 23.003687 13
63.205833 14.821822 23.196058 13
63.575214 15.51808 23.085564 13
63.570091 15.716439 23.078344 13
63.647694 15.7242 23.046473 13
63.580299 15.869281 23.143814 13
63.621292 15.895309 23.079662 13
63.58847 16.044308 23.168156 13
63.653416 16.060089 23.103289 13
63.142525 16.284727 23.11322 14
63.70364 16.273514 23.129835 13
63.159004 16.535025 23.011919 14
63.824268 16.418327 23.006321 13
63.351288 16.73217 23.003384 14
63.2967 17.333933 23.103649 14
63.358044 17.483746 23.089071 14
63.520679 17.531507 23.054424 14
63.353298 17.676783 23.123905 14
63.434471 17.693796 23.098804 14
63.469734 17.841099 23.122246 14
-4.851542 -0.92625809 23.3144 5.3333335
1.1102575 -0.8378222 23.244711 0.33333334
4.7168875 -0.8990587 23.233561 3
-4.9087629 -0.67711979 23.304138 6.25
0.6987856 -0.6671499 23.231535 3.6428571
0.85073948 -0.71176851 23.384172 6
3.1742802 -0.79006016 23.394497 4
3.6011963 -0.77406698 23.246815 4
-4.8730726 -0.59548402 23.381573 6
0.58181334 -0.42693716 23.209837 6
0.68454069 -0.52186477 23.237743 4.1666665
2.9830978 -0.59392381 23.396179 5
3.162158 -0.58211315 23.377739 5
3.5814781 -0.55799836 23.317619 5
4.6110773 -0.50483084 23.214602 5
-5.0006256 -0.24140902 23.30883 7
-4.9512262 -0.28169936 23.293196 6.8888888
0.67241335 -0.31622991 23.232906 5.6666665
3.5881164 -0.35781991 23.238548 6
4.6071301 -0.30461961 23.22497 6
-5.0160651 -0.16616435 23.294382 7
-4.9590883 -0.059468292 23.264164 7
0.5380199 -0.035004791 23.201891 7
0.65081298 -0.11507986 23.254913 6.8000002
2.8461361 -0.17766388 23.39259 7
3.0882182 -0.16726689 23.36908 7
4.5824757 -0.107006 23.215784 7
4.7649412 -0.098856047 23.225666 7
-4.8880415 0.10739359 23.218075 7.5
0.5694418 0.15003785 23.242989 7
0.61621469 0.12016173 23.259981 7.5500002
5.0380306 0.093618318 23.377018 7
-4.9062004 0.27232444 23.339296 8
0.5801369 0.31098667 23.225416 8
0.61939859 0.29353482 23.25074 8.3999996
2.9257202 0.24449359 23.386206 8
3.0394979 0.2488111 23.270918 8
3.6737952 0.2624518 23.225605 8
5.0633426 0.30033901 23.344711 8
-4.9947243 0.46097565 23.292887 8
0.56095022 0.49224544 23.257309 9.625
0.61708164 0.4572311 23.250256 8.25
3.0168817 0.45266271 23.370867 9
-5.0524592 0.70243508 23.279219 8
0.52775723 0.69893837 23.286358 10.275363
0.63531429 0.69651288 23.243757 11.583333
-5.0590458 0.96577686 23.306067 9
-0.34955287 0.98940629 23.35235 8
0.53764504 0.90453726 23.296955 10.73913
0.66835296 0.89047116 23.270155 10.138889
0.83867073 0.80912256 23.219845 8
-5.0683827 1.1560583 23.283722 9
0.52880681 1.1157343 23.238136 11.148148
0.72066861 1.1095792 23.306047 10.5
0.82549286 1.0757147 23.277613 8.5
1.1052055 1.0479059 23.254025 8
-5.0377603 1.3170797 23.28981 10
-2.4567959 1.2536411 23.255341 9.75
0.54969019 1.2864906 23.277388 9.818182
0.72492957 1.3304381 23.256691 11.333333
0.81513816 1.2738246 23.274927 10.666667
-5.5294619 1.5706995 23.38772 10
-2.846694 1.4346488 23.334396 12
-2.3535194 1.5195825 23.225487 11
-0.24556637 1.4996405 23.20549 11
0.50314641 1.4607749 23.219927 11.166667
0.6032629 1.4784648 23.238838 10
-2.8260393 1.7057626 23.21011 13
-2.7474465 1.7768441 23.380112 10
-2.4807429 1.6532226 23.227259 12
-2.3078728 1.6103611 23.212017 9
0.53673691 1.6997833 23.232536 11
0.75227356 1.6704376 23.378702 9
-2.7264318 1.9941169 23.273701 11
0.10187769 1.865543 23.22802 12
0.37875482 1.8957363 23.254461 10.333333
0.49693409 1.8996834 23.248775 11.285714
0.63349533 1.9611015 23.256725 10
-3.0044799 2.0800369 23.23616 10
-2.9402096 2.037426 23.250626 12
0.34379101 2.1903419 23.2218 12
0.49408451 2.0894475 23.24593 11.142858
-2.860219 2.3399622 23.37207 13
-2.7516201 2.2006071 23.399731 12
-2.4525337 2.2391558 23.351303 10
0.29895028 2.3064559 23.26123 11.8
0.45211059 2.2843139 23.245144 11.8
-2.6485395 2.5865073 23.354378 12
0.30253845 2.4798751 23.252039 11.75
0.45153314 2.4838395 23.23016 12.2
-2.8087444 2.7351713 23.376553 12
-2.7299852 2.7484787 23.331722 11
-2.479708 2.7269144 23.392881 11
0.18977547 2.7624326 23.222843 12
0.22357273 2.7456355 23.204617 11
0.44685322 2.6600366 23.230886 12.5
0.77866364 2.7173443 23.318081 9
0.82207394 2.7283406 23.252518 10
-3.1018291 2.8655941 23.390648 11
0.36775172 2.9211481 23.231527 11
0.44651991 2.9080455 23.243261 11.4
0.0097149014 3.0302856 23.236467 11
0.39985055 3.0421767 23.273296 11
0.4665451 3.0812171 23.293346 11.6
0.63186836 3.1085215 23.396868 10
0.34395599 3.3709974 23.224247 13
0.47482347 3.3046927 23.301294 12.285714
0.70768261 3.3388691 23.254818 10.5
-2.2207732 3.4075367 23.337406 14
0.49424225 3.4913538 23.311405 12.5
0.67975718 3.5026772 23.286676 12.333333
-1.7661653 3.7584558 23.261242 13
0.14427376 3.7369092 23.315598 11
0.34366179 3.6119657 23.253647 12.5
0.47706741 3.9782619 23.226973 12
0.61436504 3.9430594 23.236113 11
0.2333231 4.1647439 23.220818 12
0.60681641 4.1303382 23.219276 12
0.22678757 4.4353542 23.214859 12
0.49241105 4.6989923 23.33882 12
63.968254 11.621192 23.372307 11
65.913803 12.058577 23.383688 11
63.679077 12.85994 23.355869 12
64.034866 13.108784 23.208027 12
63.379379 13.302863 23.393291 12
63.513962 13.30229 23.23311 12
63.675529 13.373263 23.336084 12
63.645679 13.546494 23.32921 12
63.633842 13.658605 23.26593 12
63.123604 14.605724 23.328693 13
63.503281 14.780175 23.382906 13
63.804241 14.730323 23.264481 13
63.653111 14.927491 23.274357 13
63.336262 15.115664 23.328238 13
63.558357 15.565271 23.274029 13
63.52652 15.721472 23.304127 13
63.561111 15.822204 23.225193 13
63.630814 15.800957 23.222103 13
63.598389 16.032013 23.35918 13
63.644695 16.138968 23.296562 13
63.368973 16.641329 23.381447 14
63.336269 17.256113 23.319937 14
63.180107 17.572002 23.312157 14
63.206795 17.404594 23.370693 14
63.2724 17.706942 23.320402 14
63.453579 17.720579 23.204565 14
63.356308 17.909424 23.314129 14
63.52459 17.937965 23.287878 14
63.461407 18.134623 23.251436 14
1.328204 -1.1022388 23.512674 1
-1.2378467 -0.82351637 23.577229 4.5
1.1098897 -0.81651098 23.565666 2
1.225647 -0.92521244 23.569458 1
3.1087012 -0.99045312 23.509495 3
3.2149372 -0.84416169 23.557482 4
-4.9261875 -0.65069258 23.469711 6.1999998
-1.2495599 -0.6749326 23.576439 5.25
0.98898578 -0.65946251 23.533768 2
1.1213032 -0.72256351 23.512426 3
1.2626594 -0.70707548 23.465942 1.5
3.0404365 -0.79896688 23.418835 4
-4.8592725 -0.57645774 23.430243 6
-1.2472347 -0.4742218 23.575991 6.4166665
-1.1955727 -0.44402269 23.578619 7
2.8892889 -0.58997357 23.504213 5
3.9770381 -0.5675922 23.570286 5
4.7427368 -0.53139144 23.481962 5
-5.0123272 -0.24366736 23.450758 7
-4.9903336 -0.22373955 23.558182 7
-1.3120785 -0.32036585 23.551018 7
2.8685591 -0.38397008 23.472015 6
3.9504938 -0.35995656 23.565666 6
4.7160907 -0.31917837 23.576569 6
5.0276599 -0.30575949 23.559103 6
-4.9355321 -0.14605959 23.512121 7
-4.7529707 -0.14744547 23.595646 7
-1.4003539 -0.14288081 23.530331 7
-1.2831985 -0.085806273 23.550966 7
3.9230917 -0.15187138 23.558498 7
-5.0179496 0.041229684 23.477228 7
-4.906673 0.10811508 23.513359 7.5
-1.2540385 0.16620335 23.546186 8
3.6935041 0.047819138 23.580307 7
-4.9341936 0.2554546 23.539673 8
-1.429443 0.33761775 23.518131 8
-1.2868248 0.29944703 23.552568 8.2222223
3.7859402 0.2587142 23.579018 8
-4.9412308 0.49746531 23.489967 8
-1.4806184 0.52889055 23.504227 8
-1.3136667 0.50239885 23.545677 9.1111107
4.8564014 0.48746908 23.535568 9
-5.0087719 0.70305181 23.47916 9
-4.9938226 0.64538789 23.465919 9
-1.4289271 0.69981134 23.521076 9.5
-1.3236405 0.70374131 23.548756 9.5238094
0.5104391 0.74574012 23.483582 9
-5.0118432 0.83208007 23.53598 9
-1.4152502 0.98840934 23.512741 11.4
-1.3292509 0.89238685 23.510845 10.142858
0.38939667 0.82978922 23.414948 11.5
0.50632751 0.90153372 23.430561 10.636364
0.68095523 0.90557694 23.467577 8
0.83936596 0.98523504 23.421005 8
-5.0309043 1.1295706 23.472387 10
-1.4143088 1.0847045 23.539658 12
-1.3352288 1.0891745 23.545292 10.777778
0.51625806 1.108655 23.471531 11.423077
0.66698635 1.1322194 23.442097 9.8571424
-5.206707 1.3631347 23.457687 10
-5.0862665 1.3711601 23.516386 11
-4.9892001 1.3956709 23.553341 10
-1.4243855 1.2977577 23.581005 13
-1.3393389 1.3051728 23.568428 11.833333
0.56403446 1.2471044 23.471527 12
0.67173767 1.2819661 23.472942 11.888889
-5.4733515 1.5098889 23.508032 10
-2.7274985 1.5835608 23.419411 10
-1.3858252 1.4315399 23.483465 13
-1.3231702 1.6716249 23.536018 14
0.53187776 1.698264 23.469065 9
1.0202379 1.7094667 23.574883 9
0.50160462 1.911149 23.5168 10
0.63406843 1.8874813 23.413975 9
-2.7131786 2.0430617 23.532057 11
-1.2410324 2.0867021 23.573263 13
0.6345911 2.0823135 23.565586 9
0.90204334 2.1480205 23.562031 10
-2.830976 2.2794244 23.416325 13
0.41859627 2.3750024 23.577854 13
0.79933929 2.295763 23.429441 10
0.91434002 2.2033222 23.4575 10
-2.323416 2.537595 23.536514 11.5
-1.2260711 2.4118173 23.583908 14
-2.5345459 2.6047544 23.546097 11
-2.3121858 2.7989104 23.467815 11
-3.0649505 2.8416212 23.472893 11
-2.5071547 2.8855538 23.585823 11
-2.346396 2.9946749 23.513439 13
0.33248472 2.8865016 23.48175 12
0.48802722 2.8811913 23.442272 10
-2.7882032 3.1227107 23.451653 11
-2.5488665 3.1671569 23.564613 12
-2.3626914 3.0877528 23.532515 12
0.70060825 3.1587503 23.525084 10
0.83300924 3.1126525 23.516399 10.5
-2.8341293 3.3730807 23.561466 13
-2.3141303 3.3887649 23.426987 12
-2.1949072 3.3241463 23.490559 12
0.53659505 3.4327588 23.49371 12
0.78113222 3.4935951 23.513229 11
-2.3874288 3.6675458 23.592567 13
0.47877687 3.6779208 23.403717 13
63.46452 12.750183 23.503464 12
63.154785 12.998219 23.496967 12
63.677078 13.110977 23.532925 12
63.469948 13.274369 23.431543 12
63.621536 13.324369 23.486389 12
63.538719 13.470734 23.557184 12
63.615078 13.433207 23.501835 12
63.38026 15.094546 23.415981 13
63.409172 15.043905 23.432539 13
63.373276 15.20287 23.431742 13
63.546673 15.500483 23.469345 13
63.36359 15.626779 23.544964 13
63.514709 15.708885 23.461769 13
63.502911 15.933026 23.522379 13
63.610733 16.293854 23.473774 13
63.383621 16.661739 23.570774 14
63.479828 16.733444 23.472918 14
63.13443 17.028679 23.572086 14
63.113838 17.247618 23.562473 14
63.235443 17.284975 23.502777 14
63.260632 17.617373 23.438602 14
-1.3062315 -1.0467315 23.7257 4
1.151052 -1.0045365 23.656307 0.5
-4.830842 -0.91840619 23.716516 5.8571429
-4.7703738 -0.85085291 23.750664 6
-1.2606204 -0.8864072 23.662752 4.1333332
-1.1740376 -0.95068735 23.743294 3.3333333
1.1209037 -0.93305993 23.647238 2
1.2812755 -0.86020899 23.600309 3
3.706434 -0.99758846 23.680546 3
4.9358606 -0.89863926 23.688944 3
5.0471458 -0.88641483 23.718082 3
-4.801702 -0.71415246 23.782742 6
-1.2613624 -0.70579928 23.666939 4.9032259
-1.1836655 -0.73196429 23.742887 4.4000001
0.98998404 -0.67884827 23.730888 2
1.0592186 -0.65800583 23.724922 2
1.3135515 -0.67148656 23.684118 1.6666666
3.1413848 -0.6139617 23.692329 5
3.2639465 -0.61118346 23.631214 5
3.7196224 -0.78787851 23.649555 4
4.9235377 -0.70406669 23.646358 4
5.0514421 -0.69502193 23.65871 4
-4.8745422 -0.56562781 23.706993 6.3333335
-4.7626352 -0.48620558 23.759508 7
-1.4191251 -0.4790228 23.618387 5
-1.2624688 -0.50242245 23.684124 5.8378377
-1.1843351 -0.5539822 23.724157 5.4000001
3.6733437 -0.57105649 23.726757 5
4.9314132 -0.50590825 23.617687 5
5.0399623 -0.5014416 23.607988 5
-4.9176626 -0.26107308 23.696045 7
-4.7481632 -0.24823537 23.750196 7
-1.4114869 -0.21587512 23.614037 6.5
-1.2890129 -0.32301137 23.671656 6.375
-1.1861035 -0.36189395 23.724915 6
3.2432539 -0.38798785 23.739887 6
3.6907191 -0.36181164 23.733543 6
-4.8830485 -0.1114376 23.710917 7
-4.7261405 -0.15139093 23.724432 7
-1.2943442 -0.10762151 23.67631 7
3.181195 -0.17576608 23.794693 7
4.7159557 -0.115264 23.603188 7
-4.8078632 0.16491047 23.759396 7.5
-1.4370856 0.050934456 23.631088 7
-1.3024036 0.11692548 23.697765 7.5714288
-4.9525232 0.31234318 23.707209 8
-1.2931926 0.28856713 23.658712 7.9523811
-1.1958103 0.25023022 23.761276 8
3.0734901 0.23999557 23.796238 8
-4.9611602 0.57186186 23.665504 8
-1.4189242 0.56344616 23.656012 9
-1.3184392 0.51616943 23.678841 8.7234039
3.111624 0.45036417 23.757084 9
-5.0398493 0.74367154 23.733704 8
-4.9493279 0.69083667 23.65287 9
-1.4182312 0.73146498 23.669825 9.8000002
-1.3488699 0.70038718 23.676813 9.4761906
-5.028048 0.95610541 23.654991 9
-4.9749074 0.94488817 23.69157 9
-1.4254009 0.88451523 23.641596 9.875
-1.3261304 0.89093083 23.695498 10.074074
-4.9730477 1.0719817 23.77796 10
-1.4370075 1.1482135 23.684668 10
-1.340094 1.0977868 23.695259 11.5
0.43222809 1.0712656 23.66959 8
-5.291944 1.3450704 23.70048 10
-2.7722645 1.304979 23.654186 9
-1.5097694 1.2609061 23.690569 9
-1.3211296 1.2563829 23.677061 11.4
-5.4018097 1.5293534 23.706665 10
-5.2598486 1.4763348 23.753382 10
-1.5204433 1.454821 23.725592 9
-1.2924154 1.5176958 23.662922 12
-1.301567 1.7082019 23.626947 12
0.48905516 1.7460997 23.605534 9
0.48207346 1.8960595 23.637949 11
0.61325049 1.9575795 23.701414 10.5
0.55415154 2.051259 23.779823 14
-2.2973447 2.4734952 23.62113 10
1.0323362 2.5727789 23.75848 11
1.2482338 2.4191322 23.728476 10
-2.7575259 2.8864079 23.62565 11
0.24308205 2.87865 23.62389 12
0.75399816 2.9168119 23.733391 10
-2.2196431 3.0575087 23.739643 12
0.77936006 3.0943708 23.689365 11
0.93041861 3.1476786 23.776558 13
-2.8402319 3.2129474 23.797867 13
-2.2560349 3.2029464 23.624657 11
-2.2826273 3.5580232 23.671944 12.5
-2.4793012 3.7688994 23.65724 13
0.85193992 3.6601391 23.647564 13
-2.209517 4.1280198 23.600164 14
64.045319 11.438868 23.644674 11
63.6082 11.676854 23.664917 11
63.139946 13.022655 23.774416 12
63.739346 13.083214 23.667385 12
63.385105 13.334038 23.787722 12
63.505646 13.261125 23.667484 12
63.527367 13.537359 23.739132 12
63.551865 13.659126 23.717564 12
63.609016 13.610831 23.783493 12
63.607246 14.030465 23.741062 12
63.31282 14.984723 23.63817 13
63.624668 14.87173 23.667103 13
63.627319 15.073954 23.705078 13
63.362934 15.284462 23.667572 13
63.356518 15.572742 23.709778 13
63.411629 15.718825 23.770947 13
63.49707 15.824821 23.649109 13
63.049473 16.360954 23.736305 14
63.086224 16.450768 23.63401 14
63.600037 16.404758 23.711443 13
63.039711 16.691362 23.705465 14
63.125412 17.061895 23.789364 14
63.502647 17.054415 23.621773 14
63.19088 17.664362 23.749367 14
63.27536 17.752533 23.776535 14
63.297215 17.903889 23.708784 14
63.494568 18.720453 23.648279 14
-4.6402922 -1.2705958 23.895287 6
1.3667898 -1.1167229 23.91667 4
-4.8503757 -0.85947704 23.906902 6
-4.6451669 -0.95532036 23.956682 5
1.3420252 -0.91426307 23.91716 0.83333331
-4.8578353 -0.65416306 23.885214 6.6666665
-4.7498765 -0.65256333 23.981739 6.25
-1.2552781 -0.789204 23.806244 4
1.1256436 -0.65326858 23.93836 2
1.3368407 -0.72630578 23.935616 2.3333333
3.127224 -0.79626507 23.961346 4
-1.247962 -0.59180224 23.800125 5
3.0520215 -0.59415203 23.945385 5
5.1079588 -0.53335464 23.983768 5
16.757149 -0.46587723 23.936129 5
-4.8362303 -0.31492454 23.818155 7
-4.7168918 -0.28501207 23.914042 7
16.714376 -0.32612437 23.908573 4.2941175
-4.9067073 -0.16137134 23.901369 7
-4.7280374 -0.087628067 23.861031 7
16.692516 -0.051461831 23.891611 5.1999998
-4.8928952 0.14701925 23.866606 7.25
-4.7366619 0.091165639 23.885071 7
5.1882839 0.096811846 23.949837 7
16.597202 0.19088224 23.867464 6
16.691723 0.10812781 23.93364 6
-4.8697596 0.27215672 23.877539 7.6666665
-4.7655463 0.24422048 23.911045 7.75
5.1787829 0.30451721 23.941143 8
16.587158 0.22454786 23.854286 6
16.676704 0.26321971 23.939631 6.3333335
-4.9280005 0.52320468 23.960573 8
16.590485 0.43919694 23.889931 7
16.626104 0.49432129 23.954023 7
-4.9282889 0.67647016 23.848391 8.75
-1.303684 0.66731119 23.819088 10
16.70447 0.73080403 23.935938 7
-5.0141616 0.93074745 23.824417 9
-4.9490891 0.91735828 23.95734 8.5
-1.3288624 0.89639449 23.824636 11.333333
0.14477348 0.80382419 23.899755 9
-4.9528627 1.1079888 23.858198 9.5
-1.3419971 1.1791919 23.859623 13
0.29619503 1.1315198 23.929623 10
-4.9286132 1.2861631 23.851913 10
0.34858847 1.3878742 23.961687 11
0.52129209 1.3241469 23.922779 9.8571424
-5.1382675 1.5690973 23.920881 10
0.49005446 1.4500583 23.843817 11.333333
-5.1979318 1.6691644 23.900455 10
-0.93869209 1.6392462 23.966768 12
0.44253191 1.7086099 23.893908 11.333333
0.46256065 1.879387 23.830715 11
0.68146229 1.9014705 23.830301 10
0.99226189 1.8564271 23.816345 8
-1.6992995 2.0080464 23.866344 10
0.58064222 2.1136782 23.837723 13
0.73117352 2.0123992 23.909811 12
-0.6848793 2.308249 23.865982 14
0.70606518 2.293211 23.897036 12
0.81069779 2.5284085 23.95459 13
0.89466763 2.6037543 23.993391 10
0.80411625 2.9039259 23.931229 14
-2.2791691 3.1784286 23.837751 11
0.36688423 3.0204043 23.940477 10
0.90344429 3.1408105 23.813887 12
-0.65888214 3.2569513 23.982395 12
0.12722015 3.3392696 23.815449 10
0.49458981 3.3926051 23.910788 12
-0.9889946 3.7796719 23.910378 10
-0.99901772 3.890574 23.847641 10
63.277294 13.136235 23.900885 12
63.481544 13.498788 23.91301 12
63.630699 13.594242 23.875103 12
62.923763 14.464484 23.915703 13
63.385143 15.167855 23.862213 13
63.485973 15.163052 23.962685 13
63.60392 15.095687 23.82626 13
63.33411 15.371016 23.856354 13
63.508987 15.310746 23.918411 13
63.602249 15.304575 23.812447 13
63.369812 15.569738 23.901493 13
63.466484 15.435233 23.976431 13
63.327583 15.664675 23.885355 13
63.415939 15.672066 23.824589 13
63.131752 16.314722 23.860247 14
63.50753 17.074915 23.927044 14
63.422318 17.312735 23.987141 14
63.312683 17.541656 23.875233 14
63.224808 17.844421 23.856691 14
63.239872 18.082352 23.933876 14
63.421494 18.68807 23.921047 14
1.364397 -1.0452302 24.003618 0
-4.6699109 -0.9270665 24.058508 5
3.1608992 -0.98044103 24.103895 3
-4.8250308 -0.65882879 24.08622 5.6666665
-4.7662554 -0.64915401 24.083384 6
1.1794342 -0.66409647 24.028463 2
1.383747 -0.66715038 24.059521 1.5
1.4249477 -0.70286775 24.150873 2
3.9943912 -0.78857315 24.197491 4
4.1196918 -0.78568226 24.151276 4
-4.7463341 -0.579943 24.064182 6
4.1235843 -0.56795913 24.180429 5
16.709326 -0.45485175 24.056087 4
-4.8246622 -0.26810238 24.101816 6.8571429
4.1224465 -0.35575634 24.193256 6
5.1819305 -0.31692648 24.017353 6
16.694923 -0.28848076 24.138136 4.3333335
-4.8554797 -0.12076705 24.100897 7
-4.7337308 -0.11327623 24.066614 7
5.0199175 -0.11067687 24.111305 7
16.684443 -0.090042233 24.134218 5.1428571
-4.872961 0.18483494 24.039703 8
-4.713933 0.11092991 24.097948 7.3333335
16.540646 0.14696389 24.186647 6
16.680298 0.13003527 24.151617 6
-4.873239 0.28962451 24.09351 7.75
-4.7700086 0.28211597 24.163321 8
3.9331059 0.26545084 24.190102 8
16.664234 0.23209535 24.141914 6.1111112
-4.859437 0.52026677 24.071922 8
3.9221048 0.47326505 24.181482 9
4.9841638 0.49681735 24.096508 9
16.544661 0.53859055 24.105522 7
16.697605 0.47266665 24.119831 7
-4.882659 0.70155376 24.155254 8.3999996
0.27750492 0.7908203 24.197136 8
16.695803 0.72126442 24.084087 7
-4.9398527 0.89915931 24.120186 9
16.57658 0.85320789 24.139202 7
16.751736 0.89910239 24.172642 7
-4.8842134 1.0891623 24.128145 9.25
-4.8618798 1.2808048 24.151667 9.8000002
0.89894581 1.3758417 24.184265 9
-4.8706007 1.4443657 24.133858 10
0.47086143 1.5278389 24.02726 11
0.4059248 1.7652693 24.002119 12
0.50332069 2.1302881 24.152014 9
0.67584276 2.0510385 24.070597 11.666667
0.92994499 2.3662107 24.033861 13
1.080615 2.371294 24.13522 10
0.72007561 2.5802941 24.158497 11
0.69061446 2.642683 24.139603 12
0.89168578 2.7155912 24.076632 11.833333
0.46401215 2.858011 24.0327 10
63.63826 11.673867 24.170906 11
63.174732 12.946974 24.025799 12
63.499508 13.142192 24.056019 12
63.301544 13.391493 24.190048 12
63.452396 13.261502 24.169735 12
63.42688 13.604765 24.037485 12
63.739002 13.700483 24.130695 12
63.567013 13.874067 24.086317 12
63.57317 14.055861 24.032902 12
63.634525 14.082135 24.165939 12
63.041878 14.437378 24.007704 13
63.537262 14.759111 24.156469 13
63.838425 15.183735 24.111687 13
63.456955 15.261305 24.0756 13
63.609261 15.357626 24.089539 13
63.38203 15.551144 24.087011 13
63.547115 15.44595 24.086981 13
63.782562 15.470986 24.180729 13
63.53299 15.701158 24.148172 13
63.612061 15.747744 24.136803 13
63.546955 15.88359 24.179918 13
63.487213 16.083054 24.131599 13
63.187271 17.102747 24.03896 14
63.326622 17.314848 24.137983 14
63.405716 17.226667 24.170851 14
63.345047 17.509272 24.168449 14
63.251698 17.67087 24.089178 14
63.192307 17.930941 24.186646 14
63.239838 18.098286 24.11672 14
1.4332757 -1.0768546 24.349838 2.8333333
-4.6616516 -0.89649534 24.361216 6
4.0244317 -0.99974054 24.211868 3
5.0399761 -0.89977628 24.328215 3
-4.7077065 -0.66712093 24.30018 6.5
-4.5746155 -0.63704169 24.384541 7
1.1225536 -0.6757127 24.253458 2
1.3257165 -0.65271932 24.302496 2
3.1730349 -0.61727089 24.34959 5
5.0067234 -0.71650201 24.213697 4
-4.7140384 -0.5348106 24.295401 6.8333335
3.8934073 -0.57043743 24.295948 5
4.9176378 -0.51651734 24.214907 5
16.649906 -0.43911064 24.239489 4
-4.8341012 -0.23052505 24.272161 7
-4.7788649 -0.23595482 24.274275 7
3.7966762 -0.36590457 24.295551 6
3.9998522 -0.35392219 24.301682 6
4.9134846 -0.31263608 24.22436 6
16.520765 -0.2907111 24.207581 5
16.672546 -0.32335895 24.221382 4.1666665
16.832212 -0.39205143 24.203373 4
17.041058 -0.32535234 24.263191 4
-4.8583984 -0.072493844 24.238394 7
-4.6787629 -0.14953096 24.300486 7
3.4298551 -0.1707444 24.315596 7
3.8902647 -0.15125184 24.286585 7
4.0887241 -0.14530252 24.224245 7
16.66334 -0.10656196 24.217731 5
17.054214 -0.048057616 24.251675 5
17.283924 -0.09981969 24.306889 5
-4.8435383 0.098830849 24.373444 7.5
-4.745574 0.17960802 24.330448 8
3.207798 0.03530626 24.381535 7
16.688807 0.14132357 24.232363 6
16.92606 0.14404021 24.279709 6
-4.8359857 0.25451857 24.227545 8
-4.7548318 0.23602824 24.291643 8
3.1819458 0.24851577 24.342068 8
3.3497176 0.25229588 24.285093 8
16.660545 0.31255779 24.2328 6.75
17.275351 0.20418593 24.304852 6
-4.8762398 0.53649414 24.219109 8
3.3399448 0.45978516 24.372684 9
16.595837 0.56529218 24.223997 7
16.656994 0.41440278 24.244011 7
16.938152 0.54286402 24.238222 7
17.086754 0.49696946 24.265009 7
17.28912 0.51068056 24.303778 7
17.560518 0.52823901 24.362925 7
-4.8344293 0.634682 24.28713 8.333333
16.699862 0.72510999 24.219328 7
-4.8539991 0.89286119 24.268866 8.8000002
0.12917805 0.8760795 24.235249 8
0.47079229 0.97472245 24.336239 8
17.15023 0.80528045 24.226315 7
-4.8552775 1.0637428 24.301966 9.333333
-4.7786961 1.027023 24.203033 9
0.27894354 1.1925068 24.249645 12
-4.8302159 1.3288527 24.204227 10
-4.7644777 1.2309346 24.374332 10
0.29526234 1.2133871 24.310772 9
0.50745839 1.3671207 24.345682 9.666667
0.72336835 1.3022033 24.333092 8.333333
-4.8433943 1.4249693 24.272686 11
0.41040945 1.4476353 24.30158 10
0.70054889 1.5560701 24.299625 10
0.48979124 1.7135922 24.315809 11
0.92539597 1.6504331 24.211048 9
0.37183762 1.9192336 24.288437 12
0.5125792 1.8727343 24.316643 11
0.88093472 1.9657955 24.33392 10
0.57413435 2.1362212 24.369602 11
0.60821915 2.0939343 24.326038 13
0.49048391 2.2585609 24.32402 11.333333
0.7596488 2.3777678 24.221262 10
0.8885088 2.2958317 24.352295 10
0.68366796 2.5114117 24.28792 13
0.84919 2.4474261 24.231159 12.5
-0.61671162 2.6443007 24.234259 9
0.38626194 2.6528282 24.290146 12
0.53671026 2.6890144 24.355593 13.5
0.65684986 2.6462665 24.223372 14
-0.64977837 2.8017251 24.337317 9
0.30187511 3.058424 24.226814 13
0.45909309 3.13657 24.218388 10
-1.4980068 3.4769602 24.375637 10
63.611294 11.588026 24.227245 11
63.820969 12.162686 24.237385 12
63.729378 12.872216 24.369247 12
63.414242 13.16004 24.283537 12
63.390167 13.352128 24.381662 12
63.403923 13.286099 24.324713 12
63.493294 13.729712 24.385807 12
63.542168 13.91297 24.212103 12
63.853958 14.460157 24.374763 13
63.917999 15.179605 24.285719 13
63.459061 15.358814 24.243967 13
63.352531 15.557325 24.381243 13
63.484638 15.517573 24.322569 13
63.76862 15.432035 24.243168 13
63.286041 15.751999 24.372929 13
63.513523 15.726746 24.301643 13
63.605133 15.774364 24.324842 13
63.49691 15.870893 24.335505 13
63.552898 16.274963 24.340176 13
63.577988 16.408548 24.391796 13
63.624195 16.425241 24.294926 13
63.571396 16.658249 24.291061 14
63.505341 17.115639 24.389385 14
63.251083 17.334351 24.303513 14
63.317047 17.52573 24.248468 14
63.175488 17.674273 24.362265 14
63.345322 17.696121 24.274902 14
63.123585 17.876787 24.292334 14
63.246124 17.880529 24.220091 14
1.5172462 -1.056759 24.429569 0.5
1.6018672 -1.0569329 24.547146 0
-4.6847801 -0.89742732 24.518787 6
-4.5707107 -0.81227553 24.469622 6
1.3629117 -0.86516321 24.473463 1.5
