# .PCD v0.7 - Point Cloud Data file format
VERSION 0.7
FIELDS x y z intensity
SIZE 4 4 4 4
TYPE F F F F
COUNT 1 1 1 1
WIDTH 1380
HEIGHT 1
VIEWPOINT 0 0 0 1 0 0 0
POINTS 1380
DATA ascii
11.838408 -0.84870303 21.920938 7
12.023464 -0.83561003 21.971977 7
12.204563 -0.82472062 21.989437 7
-5.2291021 -0.75198227 21.944016 6.7142859
-5.1717749 -0.7319243 21.963758 6.5
-5.0899448 -0.78043646 21.920328 6
-4.8206758 -0.77187288 21.995243 7
-5.2217584 -0.68299133 21.939161 7
-5.1794353 -0.6854887 21.987984 7
-5.2347164 -0.55885166 21.975094 7
-5.1875663 -0.5372858 21.904545 7
3.586122 -0.57330197 21.962191 5
4.4547215 -0.52054709 21.988728 5
4.5442405 -0.51503462 21.997837 5
4.6092558 -0.51649064 21.956858 5
-5.2206373 -0.44704536 21.954247 7
-5.1242952 -0.4408049 21.914236 7
-5.2678742 -0.35898581 21.903219 7
3.5857298 -0.36981279 21.97649 6
4.4379816 -0.32777983 21.976524 6
4.6031146 -0.32223415 21.95306 6
-5.3048201 -0.2565425 21.945738 7
-5.2711492 -0.23967502 21.951719 7
4.5385942 -0.25115728 21.997759 6.3636365
2.9820433 -1.3194361 22.051746 7
-5.2462573 -1.2753894 22.072315 7
-4.784729 -1.2146053 22.004457 7
-4.5703635 -1.2221739 22.025959 7
4.2932224 -1.2718927 22.018515 7
-5.2564912 -1.1517713 22.045172 7
-4.8610306 -1.1314185 22.074299 7
1.1280642 -1.121021 22.052975 7
-5.2441936 -1.0921546 22.096333 7
-4.7338271 -1.0922272 22.004169 7
-5.2378192 -0.90420109 22.018301 7
-5.173799 -0.90107995 22.012609 7
-5.2609248 -0.8497541 22.046722 7
-5.1884413 -0.83207911 22.051247 7
0.84333944 -0.84800404 22.069998 7
-5.2580776 -0.75774598 22.034874 7
-5.171793 -0.76237792 22.060305 6.75
-4.9648104 -0.77984047 22.048901 7
0.84366179 -0.72141194 22.05685 6
0.9371314 -0.79186773 22.029797 7
6.0004091 -0.74264908 22.034725 7
-5.1418114 -0.67205966 22.061617 6.5
-5.0184755 -0.61429447 22.08926 6
3.294522 -0.58099449 22.067165 5
7.7040453 -0.54929864 22.042883 7
-5.2585907 -0.45139924 22.040894 7
-5.2277341 -0.31162238 22.057961 7
-5.0273395 -0.34498465 22.09206 7
3.4446115 -0.31951126 22.006783 6.2727275
4.325851 -0.32356784 22.096571 6
-5.2558169 -0.22832219 22.067148 7
4.368444 -0.24843574 22.039837 6.4000001
-5.0661573 -1.2460546 22.196182 7
-4.5927401 -1.2637352 22.181791 7
4.0236454 -1.2825176 22.110224 7
-5.1581745 -1.090556 22.15098 7
-5.2151275 -0.95752102 22.16931 7
-5.1942115 -0.90999877 22.198904 7
0.9156208 -0.92003042 22.130196 7
-5.1815667 -0.84955347 22.147942 7
12.344903 -0.8400991 22.138283 7
-5.2120013 -0.75277936 22.141197 7
-5.1552153 -0.75835449 22.153507 6.8571429
-4.8638163 -0.75928456 22.129473 7
-5.1528478 -0.66066611 22.175135 6.3333335
4.3335304 -0.5131591 22.109861 5
12.47703 -0.56995744 22.142178 7
-5.1997166 -0.40438324 22.194347 7
-5.2347465 -0.33492044 22.139128 6.6666665
-5.1908188 -0.36265102 22.13364 7
-5.0203824 -0.34434599 22.121758 7
2.7827883 -0.39957583 22.184414 6
-5.2393842 -0.2314366 22.137039 7
-5.1516991 -0.24272218 22.192434 7
-5.0796747 -0.24073435 22.155689 7
48.306389 0.96854854 22.11306 7
3.3801594 -1.3102483 22.29129 7
-2.8692951 -1.1396189 22.209343 7
-5.2199321 -1.0115291 22.220573 7
-5.1815085 -1.0490805 22.244398 7
-5.1455779 -0.84624517 22.231548 7
12.541871 -0.82216537 22.259949 7
-5.1656971 -0.74708927 22.257618 6.4444447
-4.897666 -0.7724905 22.26844 7
12.44512 -0.77717036 22.211256 7
12.584613 -0.78781915 22.266617 7
-5.1395378 -0.66414571 22.254282 6.75
-5.0838857 -0.65654284 22.200306 6
12.505261 -0.63338208 22.219364 7
-5.190444 -0.54544365 22.296896 7
-5.0810604 -0.58103919 22.222883 6
-5.212872 -0.4139663 22.214933 7
-5.1978445 -0.43699867 22.250683 7
2.4622498 -0.41708738 22.213112 6
2.6040242 -0.40637517 22.239655 6
-5.2119055 -0.34234321 22.260031 6.5
2.6671193 -0.34338033 22.218801 6.2941175
-5.25109 -0.23302191 22.20731 7
-5.1618934 -0.22867443 22.279541 7
-5.0577421 -0.23040994 22.21438 7
3.2148433 -0.28373724 22.290281 6.5
-5.2752199 -0.0019665584 22.204296 7
2.2973671 -1.3411338 22.376966 7
-5.1809812 -1.2810434 22.34655 7
-3.3110256 -1.2476404 22.3832 7
-5.1690764 -1.043014 22.36067 7
0.93628407 -1.0184983 22.327761 7
-5.1411042 -0.94778192 22.359844 7
-5.2435265 -0.81219316 22.3342 7
-5.1624746 -0.86189538 22.352192 7
0.90496731 -0.86393595 22.393955 7
-5.1548271 -0.74848235 22.339924 7
-4.788353 -0.7149412 22.316956 7
0.75573587 -0.70319551 22.383713 6
6.7132411 -0.72275352 22.354668 7
13.032413 -0.75849783 22.353739 7
-5.1281767 -0.66483992 22.326565 7
-5.0887461 -0.64568162 22.348381 7
-5.1477537 -0.55966389 22.316721 7
4.4022121 -0.52601409 22.314774 5
-5.1952467 -0.44163129 22.362072 7
-5.1506162 -0.3485947 22.3657 7
3.2058077 -0.38492769 22.366386 6
3.5332122 -0.30446696 22.391117 6.2916665
3.6994972 -0.35745162 22.368582 6
3.7415614 -0.35938537 22.314125 6
4.6159887 -0.30990136 22.39765 6
4.7121897 -0.30755597 22.372318 6
-5.221818 -0.26938355 22.338802 7
-5.1709356 -0.23217502 22.340752 7
4.4579945 -0.28170732 22.396145 6.181818
3.5744543 -0.15993816 22.351452 7
47.9837 0.95694906 22.323223 7
2.1063108 -1.3503389 22.413803 7
-5.1156487 -1.1720191 22.445683 7
-3.333128 -1.1534708 22.449141 7
1.3022738 -1.1492543 22.481819 7
-5.1678929 -1.0981748 22.403772 7
-5.1743388 -0.9901315 22.459274 7
-5.0984025 -0.93447638 22.451092 7
-5.1374683 -0.84283501 22.459961 7
0.95984888 -0.85861397 22.455566 7
-5.1336894 -0.75977725 22.452824 6.75
-5.0908308 -0.75042337 22.442709 7
5.6934485 -0.77077264 22.466785 7
-5.1184163 -0.65625459 22.450193 6.6666665
-5.0515552 -0.66600692 22.458641 7
12.740349 -0.6068337 22.487936 7
8.0385685 -0.58394396 22.416733 7
-5.1270628 -0.41744983 22.492157 7
4.6635084 -0.49962181 22.428944 5
-5.151969 -0.31921759 22.481184 7
4.3762555 -0.32083452 22.400249 6
4.6545205 -0.30756718 22.40514 6
-5.1660852 -0.2451629 22.458096 7
4.3852854 -0.1206246 22.471445 7
1.8521738 -1.3580968 22.541645 7
2.5539522 -1.3445994 22.552237 7
1.3599844 -1.2027332 22.509623 7
-5.0691347 -1.131876 22.541435 7
-3.4311914 -1.1544703 22.535582 7
1.1664886 -1.1522294 22.501099 7
-5.1295056 -1.0438775 22.550676 7
-5.048512 -1.0502341 22.584335 7
-5.1466799 -0.99636537 22.573009 7
0.97678137 -0.91158831 22.557251 7
-5.1326156 -0.84981817 22.530493 7
-5.0715132 -0.89281464 22.552584 7
0.99918985 -0.89753914 22.52169 7
1.0677114 -0.83629709 22.580193 7
-5.1184487 -0.74571228 22.548916 6.5
-5.0260892 -0.72964466 22.595715 7
5.7771211 -0.72146487 22.542183 7
12.731694 -0.73905486 22.598492 7
-5.0692062 -0.64954591 22.567396 7
0.68560505 -0.69884771 22.508434 6
6.7120128 -0.68731135 22.571262 7
-5.0821724 -0.51999772 22.595482 7
12.973483 -0.59458852 22.504246 7
-5.1427054 -0.41168278 22.53367 7
-5.0986385 -0.41949636 22.568008 7
2.4228091 -0.41893888 22.545933 6
-5.1506772 -0.34215713 22.586037 6.5
-5.098918 -0.39319652 22.557749 7
2.7764254 -0.33607796 22.59795 6.2727275
-5.1561222 -0.23143739 22.525448 7
-5.138206 -0.19183537 22.523998 7
2.8351212 -0.18389601 22.558382 7
3.9015024 -0.16798235 22.555117 7
47.664902 0.94545132 22.530373 7
2.2724152 -1.3573774 22.624081 7
-5.1048551 -1.2855707 22.602558 7
-4.6381912 -1.235683 22.635048 7
-5.1449537 -1.1511449 22.657007 7
-4.8809333 -1.165588 22.690071 7
1.065465 -1.1669503 22.625828 7
-5.1414895 -0.99360168 22.622705 7
-5.0759621 -0.91836518 22.680981 7
1.0471811 -0.98740721 22.651264 7
-5.1130538 -0.81937593 22.634531 7
-5.1053381 -0.76484168 22.628588 7
-5.0351295 -0.72871512 22.658689 7
-4.9717693 -0.72689009 22.675261 7
0.6994009 -0.73032308 22.652081 6
-5.1126032 -0.60431451 22.697998 6
-5.033247 -0.68362832 22.650251 7
6.5607352 -0.69708389 22.696655 7
12.597495 -0.5306316 22.648081 7
12.656677 -0.57743907 22.600407 7
12.719863 -0.52842945 22.665001 7
-5.1282473 -0.44793931 22.67264 7
-5.1286602 -0.34881669 22.632133 7
-4.9853277 -0.38527721 22.689215 7
4.7586527 -0.32592261 22.69739 6
-5.1378832 -0.23401442 22.64406 7
-5.1220512 -0.1777613 22.676287 7
3.7473006 -0.16976582 22.6696 7
-5.2066464 0.0018856004 22.636036 7
1.9289331 -1.3684791 22.791595 7
-4.0577698 -1.2716303 22.74868 7
-2.739831 -1.2061288 22.726801 7
-5.1214204 -1.0676082 22.746462 7
-5.1027093 -0.9221611 22.766127 7
-5.1256089 -0.84032726 22.722555 7
-5.0530214 -0.83386767 22.763458 7
-4.9977179 -0.89770222 22.798206 7
0.83316231 -0.81383973 22.757032 7
1.030448 -0.84283954 22.745876 7
-5.0342464 -0.72248667 22.756622 6.8333335
-4.9316349 -0.76233923 22.756916 7
-4.6588287 -0.72955918 22.720512 7
12.936837 -0.77357101 22.717066 7
-5.0366154 -0.66468018 22.728861 6.6666665
-4.922092 -0.69267583 22.758701 6
-5.0901203 -0.57235432 22.739471 7
7.8153915 -0.56252122 22.760843 7
-5.078218 -0.34146672 22.755306 7
3.6296496 -0.33443004 22.794231 6.1999998
3.7816725 -0.37234741 22.731979 6
-5.1392179 -0.2321125 22.74773 7
-4.9489775 -0.25921077 22.738857 7
-4.8521147 -0.27970091 22.767242 7
4.7334223 -0.25792527 22.734402 6.3333335
3.6117284 -0.17159452 22.766176 7
4.7527328 -0.12296607 22.757463 7
47.300407 0.93313426 22.728083 7
-5.1157722 -1.1558733 22.808401 7
-5.0665407 -1.1680204 22.845409 7
-4.0374565 -1.1750509 22.811613 7
1.1287127 -1.1063182 22.833733 7
1.2743635 -1.1327248 22.805742 7
-5.0748343 -1.064548 22.851547 7
-4.9859853 -1.0551723 22.831442 7
-5.0587454 -0.96683002 22.888653 7
-4.9862905 -0.93364781 22.876667 7
-5.0602894 -0.80334121 22.843462 7
-4.9634671 -0.8369503 22.872971 7
-5.0016336 -0.77245677 22.868702 7
-4.9981823 -0.75693315 22.821915 7
-4.6466284 -0.75273001 22.882851 7
1.0383024 -0.71168441 22.804312 6
-5.028059 -0.65536183 22.84906 6.75
-4.9672203 -0.64930046 22.871548 6.5
5.9122062 -0.65504372 22.809633 7
-5.0582619 -0.57134593 22.865692 7
-4.9112892 -0.59306127 22.842451 6
13.440916 -0.56011349 22.876478 7
13.830651 -0.54565555 22.845861 7
14.316606 -0.52835512 22.825005 7
13.916816 -0.49815011 22.895685 7
-4.9751959 -0.34330302 22.84936 7
3.5301456 -0.37667078 22.858261 6
-5.129312 -0.2128724 22.845758 7
-5.0665607 -0.27378547 22.831814 7
-4.9451065 -0.23382378 22.869905 7
4.575295 -0.24424343 22.829691 6.4000001
4.5274172 -0.12967072 22.818178 7
-5.1326213 0.0039616153 22.803776 7
-5.0070577 0.0057984069 22.822708 7
-5.0582461 -1.1477653 22.943686 7
-5.0690064 -1.0106994 22.958269 7
-4.9768209 -1.0927756 22.997437 7
-4.671968 -1.0414195 22.926605 7
-5.025907 -0.92464709 22.982903 7
1.0604668 -0.92179489 22.97488 7
-5.0347185 -0.85108018 22.927271 7
-4.9681325 -0.83644354 22.919044 7
-4.8912582 -0.89453518 22.906738 7
0.56702423 -0.81733656 22.974411 7
-5.00737 -0.71625626 22.96175 6.5
-4.9923401 -0.70171165 22.927151 7
0.56101084 -0.76888561 22.996744 7
-5.0408602 -0.64230269 22.911491 6.5
-4.9720998 -0.63726956 22.95668 6.6666665
6.1583824 -0.64393115 22.982307 7
6.6109943 -0.62917304 22.917711 7
-5.0070677 -0.50424778 22.964703 7
-4.9568458 -0.55040562 22.958744 6.5
4.5563865 -0.51164418 22.922707 5
7.9777546 -0.56132734 22.928432 7
14.386035 -0.48484516 22.921675 7
14.481144 -0.42993245 22.946047 7
-5.0388498 -0.36345685 22.963297 7
3.0596094 -0.3947503 22.986073 6
3.2134697 -0.32052821 22.936476 6.3333335
4.5492229 -0.31869245 22.913914 6
-5.0610609 -0.22900882 22.944 7
-4.9519224 -0.21092957 22.948526 7
0.6008864 -0.10809202 22.993368 7
3.9711504 -0.14444105 22.963253 7
0.47305042 -0.092248015 22.983059 7
0.50003612 -0.070294023 22.951586 7
46.884911 0.9196406 22.917999 7
-4.8391404 -1.2880923 23.087723 7
-5.0162587 -1.1711626 23.091736 7
1.3979921 -1.1733748 23.008532 7
-4.7307138 -1.0736697 23.093449 7
-4.6919875 -1.0344696 23.083744 7
-5.0228939 -0.84272921 23.060015 7
-4.7455683 -0.82700503 23.09173 7
-5.0351868 -0.76712179 23.059654 7
-4.96979 -0.73799729 23.06053 7
-4.7144728 -0.74009567 23.031567 7
0.48229218 -0.73045307 23.016909 7
0.57931805 -0.74167621 23.030029 7
0.6657567 -0.74566722 23.054232 6.5
0.71482229 -0.77426118 23.027933 7
-5.0154486 -0.60515821 23.012138 7
-4.9853854 -0.66145593 23.06456 7
0.55220628 -0.64106023 23.039555 7
0.66894555 -0.65781069 23.068007 6.5555553
0.70987415 -0.61211383 23.094858 6
-4.9756088 -0.57667899 23.045837 7
0.56319648 -0.53334963 23.047222 7
0.66005665 -0.54283416 23.078648 5.25
-5.0608435 -0.45722821 23.023113 7
-4.9434447 -0.49385309 23.085281 7
0.581388 -0.41307649 23.061672 7
0.61476541 -0.41965607 23.078846 7
2.6430953 -0.41407102 23.077486 6
2.7285399 -0.40865219 23.076883 6
-5.051002 -0.36762816 23.057493 7
0.59634542 -0.36613941 23.072838 7
0.65039498 -0.34802565 23.070831 6.5999999
0.76481724 -0.33531612 23.08971 7
0.8122015 -0.33292425 23.060871 7
0.98571682 -0.35749543 23.05653 7
1.073596 -0.35977125 23.053873 7
2.8741713 -0.34565073 23.029696 6.2727275
0.59782672 -0.23097534 23.082457 6
0.63531232 -0.23528488 23.089737 6.3333335
0.472103 -0.12913401 23.031626 7
0.53972948 -0.10868616 23.041164 7
0.63022113 -0.16396366 23.069613 6.8333335
0.47043002 -0.094572708 23.04208 7
0.53840452 -0.06231777 23.058304 7
0.64627367 -0.050870556 23.077948 7
-3.1886406 -1.2076958 23.184904 7
-5.006803 -1.0371482 23.199741 7
-4.9547968 -0.95863175 23.154552 7
-5.0048556 -0.84610993 23.135803 7
-4.9753132 -0.82267737 23.154642 7
0.68639898 -0.80924022 23.107401 7
-5.0015488 -0.71838099 23.136501 7
-4.9676623 -0.74137396 23.160852 6.7142859
-4.7721605 -0.75308704 23.109447 7
0.75119019 -0.72183597 23.178253 6
0.6835025 -0.61601704 23.152016 5.6666665
0.73529762 -0.63330203 23.14937 6
1.0953531 -0.68348104 23.135685 6
6.5479164 -0.63340783 23.190226 7
-5.0128231 -0.53753084 23.119959 7
-4.9897475 -0.59583855 23.160778 7
0.68274337 -0.54079849 23.149242 5
0.7096442 -0.56020141 23.135826 4.25
-5.0504065 -0.41957331 23.125919 7
0.66033852 -0.45277917 23.142275 6.2311692
0.71747899 -0.42029569 23.167128 7
0.85320616 -0.46480048 23.155596 7
0.96786404 -0.45824718 23.107288 7
-5.0019555 -0.33443835 23.149445 7
0.58540612 -0.37140971 23.150398 5.8000002
0.66211683 -0.34820965 23.148327 6.2670894
0.8739109 -0.36243376 23.182068 7
0.93992424 -0.35854569 23.140358 7
3.1939492 -0.33481014 23.12788 6.25
3.9279628 -0.34178948 23.198992 6
4.7749147 -0.30386722 23.13167 6
-5.0183644 -0.23781253 23.125334 7
-4.9761372 -0.21223474 23.147776 7
0.58049995 -0.24582273 23.152338 6.09375
0.64319295 -0.26148489 23.154396 6.2556295
0.7312066 -0.28922057 23.146292 7
0.90315247 -0.29391503 23.194378 7
3.5727847 -0.22353368 23.168058 6.6666665
4.8082042 -0.24648272 23.163654 6.2666669
4.9367218 -0.29766321 23.114967 6
0.37561578 -0.13545942 23.166088 7
0.41224104 -0.14101151 23.1779 7
0.55465591 -0.13983139 23.16576 7
0.6250152 -0.1636322 23.161961 6.3584652
3.6482167 -0.14888661 23.195732 7
0.49005541 -0.064065464 23.156822 7
0.56223506 -0.046241786 23.146236 6.9545455
0.62890202 -0.038987216 23.158356 7
46.356224 0.90176165 23.195309 7
-5.0044112 -1.1144718 23.224371 7
-4.986589 -1.1895376 23.251637 7
-5.001822 -1.0297565 23.233526 7
-4.9780912 -1.0479457 23.283012 7
-5.0148268 -0.97487664 23.215191 7
-4.9629951 -0.92562675 23.296001 7
-4.9600115 -0.84771365 23.220058 7
0.84695864 -0.82900882 23.261084 7
-5.0121365 -0.72599971 23.285957 7
-4.9486403 -0.74525279 23.240751 7
0.69295502 -0.70794117 23.216196 7
0.71377563 -0.75939417 23.25359 7
1.1558332 -0.71950114 23.253586 6
-4.9439049 -0.63528419 23.243336 6.25
-4.8839588 -0.67639643 23.298073 6
-4.623827 -0.69732136 23.246979 7
0.64352971 -0.62450594 23.220591 5.5500002
0.73146218 -0.63252443 23.248449 6.3333335
5.8513355 -0.66429448 23.213385 7
0.55751562 -0.54408091 23.20735 7
0.65893096 -0.56422997 23.239826 5.6363635
0.74449998 -0.53104967 23.248528 5.25
-5.002182 -0.44792673 23.292578 7
0.58178169 -0.41610256 23.213272 6.6666665
0.65766174 -0.43551454 23.226675 6.3208332
0.72109318 -0.46806702 23.231735 4
0.83378696 -0.43931282 23.236252 7
-4.981369 -0.33747488 23.281412 7
0.64986199 -0.34951204 23.226315 5.8523812
0.73442024 -0.34459201 23.262159 6.4545455
0.83577192 -0.36173311 23.246365 7
3.5881164 -0.35781991 23.238548 6
3.7258134 -0.30718386 23.225842 6.2105265
3.9042387 -0.34293282 23.201057 6
4.6071301 -0.30461961 23.22497 6
-5.017704 -0.23225136 23.2369 7
-4.9802184 -0.24932772 23.246752 7
0.67038351 -0.25351205 23.223379 5.9457479
4.6311154 -0.24650879 23.221901 6.2857141
-4.9607267 -0.19167031 23.236929 7
0.42546853 -0.13443188 23.200504 7
0.58147192 -0.14652357 23.202463 7
0.64422613 -0.16803983 23.243322 6.4952378
4.5824757 -0.107006 23.215784 7
0.54706502 -0.034644049 23.201347 7
0.65169239 -0.047082029 23.276424 7
4.7649412 -0.098856047 23.225666 7
-4.9465399 -1.1747036 23.326927 7
-4.8808479 -1.1789541 23.380014 7
-4.9643345 -1.0251092 23.367733 7
-4.861557 -1.056489 23.336571 7
-4.886447 -0.96156204 23.383881 7
1.1171908 -0.92245913 23.315228 7
-5.0432558 -0.82574034 23.322792 7
-4.9567194 -0.80737013 23.30719 7
-4.7081614 -0.82164752 23.313789 7
0.77969933 -0.81662089 23.359745 7
0.96112299 -0.82746655 23.382547 7
-4.9498997 -0.73543626 23.31012 6.6666665
0.66759968 -0.76005077 23.305235 6
0.72704124 -0.7928071 23.326521 6
0.99227381 -0.73412275 23.367874 6
1.2186222 -0.71829152 23.307507 6
-4.9053297 -0.67284954 23.399122 7
-4.8874764 -0.64299953 23.370993 6.5
-4.9663339 -0.54985255 23.340919 7
-4.8730726 -0.59548402 23.381573 6
0.69891405 -0.59412098 23.3172 7
-4.9531984 -0.48994595 23.327766 7
0.63076067 -0.43805712 23.363724 7
-4.9548659 -0.34366092 23.354364 7
0.56202793 -0.31840414 23.306103 7
0.64922428 -0.36121279 23.361868 7
0.73028183 -0.38301706 23.34724 7
3.1931067 -0.37177217 23.364817 6
-4.9818063 -0.22982538 23.325888 7
0.68486094 -0.19899985 23.306473 6
2.8461361 -0.17766388 23.39259 7
3.0882182 -0.16726689 23.36908 7
0.65282488 -0.06846685 23.307896 7
-5.0606437 0.0081711486 23.362988 7
-4.9532676 -1.1373852 23.448463 7
1.0625539 -1.0153133 23.496674 7
-4.9359026 -0.92470336 23.479149 7
-1.4978347 -0.93082166 23.472166 7
-1.3870225 -0.94293666 23.494162 7
-4.9321179 -0.82891005 23.458176 7
-4.8443699 -0.80453116 23.460093 7
-4.9247684 -0.74136943 23.453987 7
-4.8808689 -0.72710526 23.430019 7
1.0455928 -0.76756978 23.401119 6
-4.9075642 -0.63366967 23.475832 7
-4.8715158 -0.64742684 23.45643 7
-4.5670166 -0.69209093 23.460922 7
-4.9526701 -0.53615499 23.415813 7
-0.94114685 -0.45957094 23.454697 7
0.58217144 -0.46219623 23.410873 7
-4.980341 -0.3868559 23.413347 7
2.8685591 -0.38397008 23.472015 6
2.9643059 -0.3023777 23.444105 6.3684211
-4.9573069 -0.21025659 23.438589 7
-4.2381668 -1.1491442 23.507397 7
-4.9331765 -1.0387058 23.564054 7
-1.4723477 -1.0201825 23.503763 7
0.8812151 -1.0655898 23.571688 7
-1.3505347 -0.96170485 23.526459 7
-1.1467876 -0.9428671 23.555315 7
-4.9239678 -0.86075997 23.549667 7
-4.8638844 -0.87473381 23.570208 7
-1.4303164 -0.86254215 23.501688 7
-1.3473302 -0.84253949 23.541086 7
-1.2867723 -0.89351541 23.562195 7
-1.1369534 -0.85633856 23.569855 7
1.0428288 -0.81399703 23.571785 7
1.1443179 -0.88510209 23.539804 7
1.2549992 -0.83152151 23.520416 7
-4.9233379 -0.7240811 23.547077 6.5
-4.8816996 -0.74513328 23.530003 7
-4.5094986 -0.71243751 23.580254 7
-1.4190364 -0.75470972 23.520807 7
-1.3429222 -0.7632643 23.555233 7
-1.2645154 -0.74416852 23.586208 6.5
0.78990412 -0.78297323 23.510767 7
-4.9005575 -0.6596173 23.505533 7
-4.894474 -0.65140164 23.545689 7
-1.3325262 -0.65544116 23.530355 7
-1.2573341 -0.63558596 23.576412 5.8000002
-1.1789184 -0.61493939 23.595114 7
1.2562323 -0.69308674 23.564617 6
6.659585 -0.67607266 23.580198 7
-4.9374819 -0.52918923 23.512375 7
-4.8770056 -0.57848668 23.568649 7
-1.3461533 -0.55855417 23.519388 7
-1.2610904 -0.53468066 23.565403 6.5555553
-1.1841221 -0.50759232 23.587049 7
-1.0100193 -0.50271213 23.515335 7
-4.9419861 -0.44519153 23.514275 7
-1.3159399 -0.49122357 23.523245 7
-1.244035 -0.43763205 23.56439 6.6923075
-1.1889509 -0.43729571 23.577856 7
-1.0351362 -0.43601668 23.564632 7
-0.97316456 -0.43281245 23.520607 7
-4.9326553 -0.36269552 23.54154 7
-1.2477039 -0.344805 23.578491 6.7083335
3.9504938 -0.35995656 23.565666 6
4.7160907 -0.31917837 23.576569 6
5.0276599 -0.30575949 23.559103 6
-4.9738693 -0.24921559 23.547312 7
4.7387419 -0.25071406 23.574635 6.3333335
4.8881474 -0.26739299 23.552418 6.2222223
3.9230917 -0.15187138 23.558498 7
-1.3447675 -0.090519138 23.577316 7
-4.9458513 -1.1111785 23.680847 7
1.507905 -1.1330653 23.634657 7
-4.9371781 -1.0489192 23.642462 7
-1.1861925 -1.0014215 23.602295 7
1.3894415 -1.0915263 23.69841 7
-4.923358 -0.96934295 23.66238 7
-4.8880396 -0.91845024 23.693827 7
-1.2515905 -0.96151721 23.651882 7
1.2278361 -0.94290996 23.635891 7
-4.9029617 -0.88278371 23.636772 7
-4.8840561 -0.87969214 23.612635 7
-1.4166193 -0.85307693 23.691113 7
-1.3318415 -0.86722809 23.671223 7
-1.2879181 -0.85845309 23.68758 7
-1.1899109 -0.84106588 23.637133 7
1.1834145 -0.80785298 23.688374 7
-4.9081254 -0.73418182 23.654003 7
-4.844018 -0.74773079 23.655819 7
-4.5351744 -0.73867214 23.685596 7
-1.2478342 -0.74050611 23.659428 6
-1.1981058 -0.78685129 23.619909 7
1.0878348 -0.77367365 23.650211 7
1.1544619 -0.75035214 23.63534 6
-4.8532867 -0.68820649 23.654856 7
-1.3190584 -0.64530993 23.695198 7
-1.2348001 -0.61444837 23.632143 6.2857141
-1.199687 -0.64247346 23.618279 7
7.0414906 -0.62016594 23.657448 7
-4.8738966 -0.58465284 23.647772 6.5
-1.2502036 -0.5500477 23.654732 6.2777772
-1.1959372 -0.53536385 23.649597 7
4.9314132 -0.50590825 23.617687 5
5.0399623 -0.5014416 23.607988 5
-4.8512487 -0.47350037 23.687145 7
-1.3524084 -0.47958475 23.667219 6.5833335
-1.230543 -0.45183185 23.653536 6.7099547
-1.1372838 -0.45878327 23.612434 7
-1.0700102 -0.43383861 23.622896 7
-0.99812889 -0.4856447 23.610207 7
-4.9194689 -0.34836063 23.662161 7
-1.3342413 -0.35835421 23.643562 6.3703704
-1.260226 -0.35032678 23.650942 6.2553263
-1.1834481 -0.3700695 23.675041 6
3.5650616 -0.37399775 23.669434 6
3.78984 -0.31406784 23.676304 6.2222223
3.950633 -0.35513252 23.628296 6
-4.93647 -0.22971921 23.654661 7
-1.4114869 -0.21587512 23.614037 6.5
-1.3219093 -0.24797772 23.681997 7
-1.2597567 -0.27056012 23.670057 6.4563489
-1.4674366 -0.1169517 23.674082 7
-1.338557 -0.124796 23.640797 6.921875
-1.2718877 -0.11031678 23.655914 7
4.7159557 -0.115264 23.603188 7
-1.4418405 -0.090322696 23.643538 7
-1.3660707 -0.090278797 23.623856 7
-1.2595259 -0.088535994 23.671007 7
-1.4370856 0.050934456 23.631088 7
-4.9122753 -1.1511314 23.752663 7
-4.7556267 -1.151978 23.798607 7
-4.8624368 -1.0560603 23.747177 7
-4.8591709 -0.97486234 23.786285 7
-4.8935342 -0.83142835 23.740377 7
-4.7714701 -0.8208285 23.765585 6
1.2261207 -0.87694669 23.750668 7
-4.8352346 -0.72602272 23.750059 6.6666665
1.2946296 -0.72624767 23.78414 6
1.3134303 -0.73959315 23.762959 6
-4.8381262 -0.64693993 23.752014 7
-4.7940817 -0.64909798 23.757549 7
-1.2698567 -0.63719767 23.717722 5.9499998
6.1968527 -0.65521806 23.704897 7
7.839325 -0.66877007 23.778305 7
7.9838753 -0.66153997 23.727497 7
-4.8706989 -0.52983713 23.762802 7
-1.3387966 -0.5560385 23.725636 6
-1.2450467 -0.53822887 23.731934 6.4000001
-1.1796885 -0.54708523 23.764853 5
-4.7626352 -0.48620558 23.759508 7
-1.3312746 -0.44761756 23.756964 6.75
-1.2535795 -0.44843721 23.716715 6.5
-4.9179082 -0.37621981 23.716194 7
-4.8849401 -0.35342669 23.751572 7
-1.3194327 -0.35177827 23.708582 7
-1.2311558 -0.3615962 23.732004 6.0976429
-1.1880344 -0.35868859 23.735168 6
2.8984323 -0.30298403 23.733521 6.5
3.1934748 -0.30244982 23.789682 6.4000001
3.2642388 -0.37200996 23.733559 6.0714283
3.6907191 -0.36181164 23.733543 6
-4.9276037 -0.24456449 23.745174 7
-1.3453884 -0.29303455 23.704126 7
-1.2092171 -0.28225338 23.741982 6.348485
-4.9051952 -0.19803077 23.745478 7
-1.4336698 -0.14890467 23.709385 7
-1.3380359 -0.1623106 23.736877 7
-1.2385913 -0.12567364 23.739769 7
3.181195 -0.17576608 23.794693 7
-1.2251225 -0.074923053 23.706703 7
-4.9917169 0.010971107 23.722382 7
-3.2786016 -1.3005555 23.88575 7
-3.8998718 -1.2161274 23.80513 7
-3.1172705 -1.2944224 23.82435 7
-4.8934865 -1.0683416 23.881094 7
9.9271441 -1.0955598 23.854412 7
-4.8577495 -0.84805065 23.86552 7
1.2357106 -0.80573654 23.809515 7
-4.9272652 -0.77134502 23.815462 7
-4.8201494 -0.71568626 23.872509 7
-4.7956753 -0.73435533 23.839649 7
0.81601906 -0.7012428 23.828491 6
-4.8399272 -0.65222299 23.845501 6.8000002
0.86036777 -0.64776278 23.877213 6
1.1780338 -0.6719662 23.874266 6
-1.3299026 -0.53859717 23.832462 7
-1.247962 -0.59180224 23.800125 5
-4.8620701 -0.45933843 23.836596 7
-1.4024668 -0.47603792 23.843655 7
-4.9104347 -0.32347885 23.814241 7
-4.8546386 -0.38226137 23.831985 7
-4.6748466 -0.31415045 23.8976 7
3.0843453 -0.38812101 23.870819 6
-4.9040585 -0.2188919 23.843109 7
-4.8848343 -0.19194606 23.852285 7
16.597202 0.19088224 23.867464 6
16.572235 0.22271794 23.871639 6
16.612251 0.22420245 23.8545 6
16.610981 0.35190159 23.878935 6.5
16.590485 0.43919694 23.889931 7
-4.859283 -1.2102439 23.939405 7
-4.8952446 -1.1550289 23.948917 7
-4.7162542 -1.1746409 23.933113 7
-4.8806052 -1.0882345 23.968925 7
-4.7705488 -1.0411632 23.959822 7
9.7652512 -1.0968802 23.995529 7
-4.8618412 -0.81558686 23.925819 7
1.2767725 -0.84202099 23.95948 7
-4.8464737 -0.75642848 23.94396 7
-4.7734461 -0.76114106 23.947903 7
-4.6017103 -0.73114705 23.940681 7
-4.5155458 -0.71812993 23.918686 7
-4.4789915 -0.73321271 23.900925 7
-4.8339148 -0.679286 23.916849 7
-4.766223 -0.64756805 23.981194 6.6666665
7.8548646 -0.67272758 23.910147 7
-4.8504705 -0.52909869 23.959427 7
-4.8453145 -0.47822097 23.906139 7
-4.9068847 -0.30583811 23.933495 7
-4.8277965 -0.32012382 23.943424 7
-4.7322512 -0.31278706 23.966282 7
-4.6326666 -0.33873767 23.901592 7
16.792402 -0.37466687 23.938244 7
16.946863 -0.31031775 23.953588 7
17.03273 -0.36337346 23.992516 7
-4.8318925 -0.25521386 23.985338 7
-4.7244473 -0.24301931 23.973433 7
16.752024 -0.23890565 23.961708 6
16.833363 -0.21076229 23.971756 7
16.903011 -0.21162303 23.958193 7
-4.8839712 -0.18741761 23.919254 7
16.713017 -0.16480136 23.984802 7
16.722853 0.04468596 23.927454 6
16.649895 0.16592561 23.933716 6
16.703945 0.14935985 23.93162 6
16.631014 0.23650847 23.947344 6.0571432
16.762566 0.28091156 23.942333 7
16.647121 0.31388545 23.978132 6.3642855
16.750448 0.33982605 23.960354 7
16.659937 0.47350797 23.972364 7
16.726139 0.41889921 23.97826 7
-4.8850632 -1.1809382 24.033171 7
-4.7704644 -1.1762807 24.091253 7
-4.8319678 -1.049119 24.050385 7
-4.7903585 -1.0322783 24.012592 7
-4.7975154 -0.94115639 24.080181 7
1.2564387 -0.94052541 24.047398 7
-4.8425336 -0.84495693 24.026558 7
-4.7517805 -0.82880676 24.049089 6.5
1.31885 -0.83136064 24.037046 7
-4.8059425 -0.73709333 24.088102 7
-4.7645483 -0.76173627 24.07505 7
1.321949 -0.73672724 24.065716 6
-4.7699776 -0.65731269 24.046112 6.5
0.89472866 -0.6778847 24.071632 6
1.3878527 -0.68740594 24.068459 6
5.991797 -0.61273324 24.04138 7
6.1440735 -0.60659122 24.041542 7
8.1630363 -0.66593266 24.041878 7
-4.8113961 -0.55459267 24.082317 7
-4.7561092 -0.57072616 24.022148 6
-4.8246841 -0.46191829 24.018957 7
-4.8650055 -0.39384758 24.060692 7
-4.7951794 -0.32221496 24.085705 7
5.1819305 -0.31692648 24.017353 6
16.639551 -0.36488414 24.061081 7
17.163107 -0.33176714 24.023262 7
17.373581 -0.35420191 24.096249 7
-4.8413906 -0.2153922 24.043404 7
-4.764451 -0.24396648 24.029373 7
16.574902 -0.27945223 24.070475 7
16.605143 -0.25939515 24.050615 7
17.189156 -0.23878667 24.076843 7
17.234777 -0.26489714 24.040052 7
17.448574 -0.25951657 24.09618 7
-4.8090835 -0.19954541 24.097294 7
-4.7279186 -0.19665326 24.082344 7
17.161304 -0.16105694 24.033295 7
17.276102 -0.16223514 24.07453 7
17.355778 -0.15573204 24.086224 7
16.697025 0.011589199 24.048773 6
16.691099 0.10705479 24.053083 6
16.643944 0.25012314 24.068235 6.1794872
16.654606 0.33556992 24.033594 6.6115389
16.733908 0.3078807 24.052338 7
16.673452 0.46666965 24.05817 7
-4.6161184 -1.3335299 24.182489 7
-4.8336549 -1.133625 24.153662 7
-4.780261 -1.0457089 24.144215 7
-4.779892 -0.92709255 24.159777 7
-4.8064413 -0.86737669 24.124317 7
-4.7770386 -0.88876921 24.148167 7
1.2914615 -0.89929116 24.17448 7
-4.7985334 -0.75178725 24.192543 7
-4.4505825 -0.71497095 24.155949 7
1.3609705 -0.77610272 24.15041 6
6.358427 -0.73837543 24.146589 7
-4.813756 -0.63740462 24.121368 7
-4.7415247 -0.65340996 24.129131 6.8000002
-4.4762001 -0.68154508 24.118668 7
-4.8217468 -0.51731944 24.110571 7
-4.7982893 -0.52875161 24.157639 7
6.7553902 -0.58403099 24.107473 7
-4.8090143 -0.47935164 24.191673 7
-4.8107061 -0.34609455 24.181444 7
4.1224465 -0.35575634 24.193256 6
17.482426 -0.37264875 24.131927 7
-4.8445244 -0.21567583 24.148127 7
-4.7519617 -0.21073984 24.118435 7
4.1160703 -0.25182176 24.169216 6.5
5.0423717 -0.26081383 24.117054 6.2631578
17.466961 -0.26587257 24.143253 7
-4.702702 -0.18731089 24.171429 7
5.0199175 -0.11067687 24.111305 7
17.439682 -0.16113527 24.116554 7
17.624805 -0.14008567 24.176249 7
-4.9151721 0.013846144 24.110767 7
16.664074 0.040234581 24.182343 6
16.662535 0.1819659 24.146425 6
16.800695 0.17083813 24.196987 5.8571429
16.647036 0.23625191 24.140793 6.1428571
16.7384 0.23262425 24.165756 6
16.669676 0.34103599 24.162039 6.8444443
16.700804 0.3976441 24.107342 7
16.668102 0.46084705 24.154783 7
16.732737 0.48488805 24.160864 7
16.828899 0.49378115 24.178482 7
16.544661 0.53859055 24.105522 7
16.612955 0.54228795 24.123373 7
16.934933 0.53133166 24.193752 7
-4.7776837 -1.2120792 24.255106 7
-4.8278031 -1.1997545 24.285051 7
-4.7725472 -1.1956152 24.24826 7
-4.6764326 -1.1578131 24.224718 7
-4.7657852 -0.95555031 24.247404 7
-4.7821903 -0.87120879 24.239714 7
1.3234959 -0.81624961 24.225864 7
-4.8245878 -0.79572654 24.251375 7
-4.7470651 -0.72668487 24.257521 6.6666665
-4.634964 -0.71918094 24.208292 7
-4.5160036 -0.79754698 24.206593 7
-4.747025 -0.65732813 24.242542 6.75
-4.5720539 -0.67181671 24.2085 7
-4.462513 -0.67943186 24.296398 7
-4.7329173 -0.54223609 24.264458 7
-4.6986604 -0.57316905 24.226707 7
-4.7675686 -0.44809398 24.241402 7
16.734745 -0.43189979 24.262032 7
-4.8161931 -0.33888105 24.237829 7
-4.7795014 -0.31565419 24.283983 7
3.7966762 -0.36590457 24.295551 6
4.9134846 -0.31263608 24.22436 6
17.904322 -0.33990169 24.237301 7
-4.7635417 -0.21739064 24.220818 7
3.8873451 -0.29710591 24.279152 6.3076925
16.690456 -0.24687159 24.272158 7
17.933702 -0.28537905 24.218164 7
18.178493 -0.26659513 24.275192 6.5
21.482849 -0.25708294 24.254713 6
-4.7238688 -0.19642796 24.251438 7
3.8902647 -0.15125184 24.286585 7
4.0887241 -0.14530252 24.224245 7
4.8497844 -0.11337344 24.206249 7
17.81798 -0.13514638 24.224934 7
18.003571 -0.1807299 24.266567 7
18.00915 -0.075126253 24.271017 7
16.648619 0.073696464 24.218214 6
16.632904 0.14395154 24.232361 6.25
16.777399 0.17529348 24.219662 6
16.813938 0.16472897 24.20916 6
17.119198 0.17168511 24.289589 6
16.652931 0.23173834 24.211166 6.3333335
16.967247 0.2220749 24.22728 6
17.271919 0.23983566 24.292429 6
16.576555 0.32936555 24.259586 7
16.664877 0.33959463 24.237354 7
16.660599 0.41474715 24.234713 7
16.858622 0.48567149 24.221451 7
16.984364 0.48420686 24.227299 7
17.076921 0.49018657 24.249283 7
17.224489 0.48136362 24.29464 7
16.595837 0.56529218 24.223997 7
16.636698 0.56695062 24.204004 7
16.884371 0.57961595 24.258953 7
16.945353 0.52184308 24.240091 7
17.055927 0.52568239 24.257236 7
17.130329 0.50614583 24.264301 7
17.259941 0.52598035 24.281048 7
17.320261 0.57979548 24.287859 7
44.758183 0.84247714 24.227362 7
-4.1106577 -1.367391 24.39134 7
-4.3324966 -1.1073025 24.386642 7
-4.7592926 -1.0323647 24.336922 7
-4.6771145 -1.0923533 24.350555 7
-4.7710776 -0.95440114 24.390049 7
1.3261588 -0.96353829 24.387772 7
-4.7609324 -0.84825975 24.330704 7
-4.8088045 -0.79800069 24.396902 7
-4.7366948 -0.72463608 24.343269 7
-4.7200718 -0.65368342 24.351315 7
-4.6432695 -0.65044433 24.385994 7
-4.5746155 -0.63704169 24.384541 7
0.91714668 -0.66287935 24.37344 6
1.1364675 -0.65213788 24.301037 6
8.0367193 -0.62762797 24.368265 7
16.83437 -0.64878029 24.342918 7
17.125355 -0.62745655 24.340668 7
-4.7430243 -0.55730033 24.335646 7
-4.7549667 -0.48158002 24.3722 7
-4.6685247 -0.44583803 24.373446 7
16.728598 -0.43730673 24.340248 7
16.833158 -0.44509009 24.367413 7
16.909157 -0.42032087 24.315928 7
17.244396 -0.41860402 24.370012 7
3.4078791 -0.30174708 24.333817 6.3888888
3.9575832 -0.35564613 24.309916 6
16.813038 -0.3481164 24.346523 7
17.061279 -0.37175941 24.379112 7
17.127151 -0.3535943 24.361164 7
17.257805 -0.39951861 24.382069 7
17.37915 -0.38086557 24.392063 7
18.330898 -0.33344656 24.358486 7
-4.8035393 -0.23742941 24.388889 7
-4.789257 -0.2557756 24.364033 7
16.735886 -0.25751162 24.346527 7
16.860088 -0.25321639 24.350544 7
17.045095 -0.24584007 24.345291 7
17.285015 -0.2491264 24.385649 7
18.385094 -0.27410457 24.339594 7
18.449493 -0.25645906 24.358555 6.5
21.412033 -0.26032078 24.325686 6
-4.7524891 -0.19177145 24.377254 7
3.4298551 -0.1707444 24.315596 7
16.662786 -0.16477132 24.336044 7
16.967773 -0.10942641 24.349012 7
17.103802 -0.11131525 24.350731 7
17.29184 -0.19516981 24.399048 7
18.165588 -0.1358563 24.304867 7
18.252846 -0.1593166 24.327518 7
18.473385 -0.13629659 24.389771 7
16.654364 -0.099213004 24.326986 7
17.154358 -0.095100522 24.353136 7
17.295145 -0.06698823 24.395222 7
18.273117 -0.089759797 24.326706 7
-4.864728 0.015677534 24.372866 7
17.071178 0.18175136 24.300978 6
17.415239 0.18869227 24.392515 6
17.275351 0.20418593 24.304852 6
17.303814 0.21721146 24.308262 6
17.627962 0.2405556 24.384537 6
17.452826 0.49334794 24.319073 7
17.558111 0.49408105 24.385571 7
17.248264 0.52599174 24.330513 7
17.380995 0.51723194 24.347149 7
17.455383 0.51321721 24.370117 7
17.547314 0.54694021 24.360136 7
17.626793 0.52186102 24.3764 7
17.393766 0.60565889 24.38987 7
17.73114 0.60149068 24.396189 7
-4.742353 -1.2185123 24.432526 7
-4.755312 -1.1615895 24.453041 7
-4.423708 -1.1082447 24.470829 7
-4.1574907 -1.1957743 24.493534 7
1.5617208 -1.0427917 24.430056 7
-4.7474289 -0.95152593 24.437799 7
-4.6397123 -0.93249977 24.490288 7
-4.7731085 -0.82120073 24.401859 7
1.3277698 -0.88624918 24.454468 7
-4.7392216 -0.77086806 24.434193 7
-4.6665983 -0.75745314 24.457899 6.5999999
1.3380156 -0.75102019 24.403063 6
1.4013586 -0.78824669 24.459003 6
-4.660068 -0.66397363 24.464041 6.8000002
-4.579525 -0.66906607 24.437109 7
0.96217513 -0.67082161 24.456768 6
1.0428424 -0.6485281 24.446835 6
-4.7383595 -0.56750298 24.460888 6.5
-4.5951614 -0.40138629 24.443272 7
17.622829 -0.42144334 24.489635 7
-4.7657604 -0.35783237 24.431341 7
-4.6377926 -0.36865711 24.421804 7
3.2286265 -0.34662038 24.427729 6.1999998
3.3597188 -0.38288122 24.409861 6
17.362648 -0.33069888 24.419563 7
17.473179 -0.31566018 24.453239 7
17.5811 -0.31547332 24.470387 7
17.616535 -0.34966415 24.477381 7
18.54841 -0.32867235 24.414873 7
-4.7772789 -0.21543333 24.448978 7
17.339817 -0.26486337 24.405519 7
17.482605 -0.25629288 24.44392 7
17.505955 -0.23576635 24.453552 7
17.691626 -0.20122212 24.492674 7
18.408367 -0.22479844 24.428068 7
18.673836 -0.22944722 24.431887 7
18.714329 -0.26069158 24.410032 6
21.220631 -0.26803774 24.490723 6
17.383623 -0.13075608 24.419315 7
17.641262 -0.19278163 24.49749 7
18.524569 -0.11750952 24.41283 7
18.732649 -0.11244565 24.471212 7
17.529263 -0.089577794 24.455111 7
17.647236 -0.083028078 24.494614 7
18.499729 -0.080611944 24.404821 7
18.832684 -0.055012565 24.482315 7
17.641907 0.19331032 24.444637 6
17.668707 0.21937329 24.401787 6
17.745111 0.2350837 24.430931 6
17.859518 0.21152462 24.44619 6
18.036428 0.25259212 24.499327 6
17.578138 0.52227163 24.435926 7
17.650328 0.53575414 24.417316 7
17.716509 0.52720386 24.416409 7
17.867386 0.52525717 24.46829 7
17.941908 0.53756166 24.469893 7
17.722088 0.62218297 24.471386 7
17.868942 0.61594677 24.459141 7
44.528118 0.83291751 24.418993 7
1.5461893 -1.1087898 24.515545 7
-4.7561417 -1.0189936 24.554695 7
1.5021954 -0.96835977 24.57325 7
-4.734993 -0.87497902 24.55991 7
1.3886273 -0.85974962 24.573002 7
-4.714335 -0.78361499 24.518494 7
-4.6343122 -0.74603754 24.550705 6.8333335
-4.5676422 -0.75557989 24.553455 7
6.0242405 -0.76609236 24.571014 7
-4.7125702 -0.63230526 24.563295 7
-4.6594343 -0.64179051 24.549831 6.75
0.98380804 -0.67783439 24.568813 6
1.2575011 -0.66361415 24.500856 6
-4.7294741 -0.52359551 24.537106 7
-4.7321081 -0.48014861 24.524551 7
-4.7372789 -0.3191396 24.547964 7
17.651859 -0.35355732 24.50536 7
17.850956 -0.36321449 24.534372 7
18.037382 -0.357373 24.594749 7
19.128136 -0.31281179 24.560066 7
-4.7453394 -0.2509245 24.593252 7
17.715366 -0.20467418 24.512342 7
17.802574 -0.22933766 24.537769 7
17.997517 -0.27183187 24.590031 7
18.010296 -0.29653418 24.595066 7
18.760359 -0.215253 24.524208 7
19.149826 -0.26684916 24.523968 6
19.35033 -0.26062006 24.590733 6.5
20.893656 -0.26823658 24.51169 6
-4.750607 -0.19263422 24.55497 7
17.719894 -0.10097933 24.515694 7
17.807034 -0.18251777 24.543331 7
18.00425 -0.17135 24.593658 7
18.904688 -0.15761101 24.528339 7
19.02923 -0.13425185 24.537834 7
19.136686 -0.15182784 24.593283 7
19.236515 -0.13365749 24.599953 7
17.749949 -0.063612938 24.517715 7
17.803864 -0.0089306831 24.552746 7
17.921051 -0.0031175017 24.584963 7
18.010597 -0.096100211 24.593964 7
19.026926 -0.049295016 24.55146 7
19.159409 -0.045189522 24.589329 7
19.246893 -0.099194907 24.594709 7
-4.7997756 0.017374299 24.584913 7
18.098063 0.23440139 24.528124 6
18.117352 0.2257669 24.520584 6
18.258179 0.20925452 24.553997 6
18.31591 0.21761592 24.583862 6
17.879898 0.54322481 24.514915 7
17.962856 0.53334332 24.510096 7
18.069666 0.56159425 24.534231 7
18.165459 0.56787175 24.523731 7
18.251337 0.53623408 24.576029 7
18.338432 0.55109024 24.571842 7
18.040886 0.62757879 24.540476 7
18.149164 0.62338185 24.509171 7
18.345016 0.63344818 24.555843 7
-4.5047445 -1.3047807 24.623297 7
-4.7401299 -1.2230111 24.651209 7
-4.7040935 -1.1083196 24.642399 7
-4.5764132 -1.127593 24.661724 7
1.6138639 -1.1523511 24.610771 7
-4.7035737 -1.0873909 24.697771 7
-4.6071835 -1.0732942 24.659653 7
9.151475 -1.0954812 24.63843 7
-4.6423388 -0.88243997 24.658749 7
1.3442936 -0.84793848 24.600475 7
-4.7682686 -0.74953377 24.66802 7
-4.6726828 -0.73247075 24.658035 6.5
1.145287 -0.74360549 24.630825 6
-4.6435537 -0.65539294 24.652506 6.8000002
-4.5707693 -0.62057155 24.699944 6
-4.5518932 -0.55297726 24.664753 6
-4.7143888 -0.45046699 24.639816 7
-4.7343349 -0.35924751 24.651525 7
5.294137 -0.30199325 24.689003 6
18.267437 -0.37792099 24.669254 7
18.311954 -0.32006931 24.657066 7
19.359243 -0.30782783 24.623095 7
19.457514 -0.30927107 24.661232 7
19.595909 -0.30255088 24.681837 7
-4.7224016 -0.20536061 24.680632 7
5.0793571 -0.28645194 24.68935 6.125
18.136091 -0.26269689 24.631994 7
18.232601 -0.2640838 24.657358 7
18.329184 -0.26788139 24.680023 7
19.505384 -0.23352535 24.670301 7
19.637419 -0.24074334 24.674131 6.6666665
3.251272 -0.16222982 24.688099 7
18.294621 -0.17002898 24.678936 7
18.334608 -0.16361147 24.673923 7
19.290627 -0.14608149 24.601414 7
19.34239 -0.13627668 24.64686 7
19.462086 -0.12780076 24.661644 7
19.547474 -0.10171127 24.686728 7
18.163143 -0.076335192 24.645466 7
18.291679 -0.069467723 24.678373 7
18.344193 -0.032707751 24.684891 7
19.380028 -0.050069515 24.647442 7
19.566877 -0.060966313 24.671894 7
18.072863 0.030090779 24.629421 7
18.245018 0.098541796 24.685026 7
18.326115 0.19620466 24.65111 6
18.462845 0.22258706 24.623138 6
18.543877 0.23290825 24.637621 6
18.650293 0.25241095 24.659906 6
18.194489 0.54319578 24.607401 7
18.243807 0.56343722 24.604231 7
18.37838 0.55625093 24.639959 7
18.441378 0.56540698 24.645027 7
18.556841 0.55978173 24.660639 7
18.642082 0.57052422 24.657173 7
18.752048 0.5540942 24.669828 7
18.22263 0.64083207 24.611223 7
18.343853 0.63561803 24.643438 7
18.458235 0.64868468 24.64599 7
18.584715 0.60473061 24.650021 7
18.640062 0.62815732 24.648914 7
18.708395 0.6586473 24.67907 7
-4.7147498 -1.2287658 24.769405 7
-4.6759143 -1.161429 24.726109 7
-4.5819712 -1.0410724 24.715557 7
-4.6349673 -0.94723558 24.737514 7
1.4228778 -0.93338418 24.792774 7
-4.6542335 -0.86606514 24.758554 7
-4.659843 -0.73223114 24.75856 7
-4.5795507 -0.79248667 24.757332 7
-4.3756781 -0.70351779 24.748425 7
1.1289334 -0.76087338 24.750381 7
-4.6514578 -0.64633363 24.735352 7
-4.5344791 -0.62730491 24.719822 6
-4.2557011 -0.68642187 24.734158 7
7.9970369 -0.55977666 24.732021 7
-4.7016292 -0.47839391 24.795235 7
-4.6955919 -0.49027103 24.743626 7
-4.7151623 -0.35643649 24.706104 7
-4.6628404 -0.30747572 24.733994 7
5.0135517 -0.31336451 24.722754 6
5.2295752 -0.3041811 24.701332 6
18.42774 -0.36712515 24.714191 7
18.554138 -0.33505872 24.752224 7
18.7505 -0.31731725 24.795715 7
19.806665 -0.30187505 24.755264 7
-4.7329803 -0.21612398 24.775513 7
-4.6667118 -0.21683718 24.720514 7
4.2856617 -0.22028029 24.777626 6.5999999
19.734488 -0.22816028 24.729912 7
20.046314 -0.27986383 24.756859 6
-4.6391306 -0.19985592 24.762177 7
5.0073237 -0.10469276 24.719032 7
18.396843 -0.16395169 24.708206 7
18.46632 -0.16009504 24.723213 7
18.734129 -0.19906449 24.794329 7
19.607164 -0.14006072 24.721472 7
19.860893 -0.11733969 24.76545 7
18.64325 -0.061726511 24.765696 7
18.752041 -0.026336551 24.787695 7
19.597256 -0.055467233 24.707781 7
19.695595 -0.088893421 24.730515 7
19.783333 -0.06128078 24.73008 7
19.923195 -0.044906992 24.794453 7
-4.7233062 0.018947877 24.741055 7
18.511978 0.025988281 24.747364 7
18.503733 0.11050329 24.758711 7
18.8064 0.19314539 24.784868 6
26.676497 0.1429784 24.748455 7
26.738379 0.18663609 24.779732 7
26.81086 0.14748366 24.756832 7
26.919254 0.14992547 24.741028 7
18.85014 0.25221667 24.712431 6
18.912212 0.22412944 24.73912 6
19.043369 0.23325667 24.768169 6
26.686562 0.24741843 24.746384 7
26.789505 0.20593089 24.726648 7
26.814207 0.24023354 24.709574 7
26.971069 0.2615371 24.751316 7
27.155733 0.23077971 24.798401 7
27.27877 0.27037722 24.792715 7
26.826523 0.328565 24.765976 7
18.675049 0.57767797 24.738575 7
18.747152 0.56728184 24.735399 7
18.814835 0.5676204 24.722925 7
18.941053 0.57273757 24.749245 7
19.059982 0.58746374 24.77877 7
19.138622 0.56177855 24.759624 7
18.638527 0.65574753 24.731148 7
18.764757 0.63029987 24.736191 7
18.81966 0.67625648 24.748905 7
18.956297 0.63243437 24.757303 7
19.045206 0.6380055 24.773026 7
-4.6402335 -0.95662057 24.837267 7
-4.5735054 -0.97535044 24.88728 7
1.3685288 -0.91725969 24.813694 7
-4.6518412 -0.82887316 24.835423 7
1.4650598 -0.84262699 24.851767 7
-4.6446533 -0.75553656 24.866358 6.6666665
-4.4314337 -0.70816362 24.880711 7
1.1260767 -0.74149764 24.884077 6
6.8596067 -0.74351478 24.838442 7
-4.6263323 -0.6551832 24.839211 7
-4.5753498 -0.62162924 24.849962 7
-4.3658037 -0.69887501 24.899216 7
-4.6505737 -0.54203635 24.837353 6.5
-4.6541395 -0.42832607 24.851763 7
3.1418853 -0.4177916 24.804779 6
-4.6738892 -0.30951339 24.866543 7
4.2166038 -0.34948945 24.819366 6
18.90806 -0.30709231 24.83548 7
19.153866 -0.31995201 24.892262 7
-4.6911521 -0.22392054 24.816238 7
18.786842 -0.23245496 24.81539 7
18.931488 -0.22328085 24.85688 7
20.505571 -0.28663421 24.874811 6
-4.6676993 -0.18122876 24.836609 7
-4.5765667 -0.18359339 24.8139 7
4.0381489 -0.14174253 24.899714 7
4.1907883 -0.13820753 24.816174 7
18.875021 -0.19070983 24.832609 7
18.944126 -0.13193357 24.858288 7
19.080252 -0.12385631 24.898443 7
19.854683 -0.18555045 24.825781 7
19.965002 -0.13107727 24.816128 7
20.108984 -0.17844915 24.888939 7
20.226042 -0.11781504 24.867432 7
18.768984 -0.054745495 24.803478 7
18.875263 -0.020011187 24.821772 7
18.933647 -0.002161473 24.848589 7
20.002672 -0.024650581 24.811926 7
20.136139 -0.040971704 24.845039 7
20.285719 -0.075567909 24.863045 7
20.321428 -0.041504987 24.882877 7
18.920252 0.056726664 24.859859 7
26.650261 0.15877235 24.814598 7
26.738071 0.1805281 24.838593 7
27.305113 0.14039001 24.887255 7
19.030895 0.2066925 24.822437 6
26.625263 0.21729568 24.886745 7
27.279692 0.28331897 24.858545 7
27.450966 0.20714353 24.871962 7
26.643522 0.32222855 24.817734 7
18.91309 0.59736073 24.819164 7
19.035013 0.5749113 24.827562 7
19.273609 0.58913958 24.840725 7
19.324795 0.57766306 24.868368 7
19.595301 0.57923347 24.870132 7
18.948496 0.67139876 24.813711 7
19.071411 0.61379683 24.827126 7
19.134968 0.65519857 24.826714 7
19.254103 0.6692152 24.842291 7
19.381405 0.64667225 24.872208 7
19.4508 0.68980336 24.851023 7
19.512997 0.65694284 24.884666 7
-4.6280909 -1.2020291 24.988476 7
-4.6479793 -1.1487288 24.96273 7
-4.5284605 -1.100266 24.955366 7
-4.6752391 -1.0687573 24.938061 7
-4.6136379 -0.98164707 24.937252 7
-4.644619 -0.88498461 24.959335 7
-4.6486826 -0.73897392 24.956976 7
1.1156874 -0.77197635 24.941652 6
6.2102137 -0.71927452 24.914757 7
-4.5756655 -0.65226656 24.937119 7
-4.2575588 -0.68517649 24.906757 7
1.1295972 -0.62882656 24.999107 6
8.0364895 -0.5965423 24.92293 7
-4.6491108 -0.46368209 24.957464 7
3.1660216 -0.40682054 24.928669 6
-4.6676974 -0.33260649 24.975006 7
3.5264206 -0.34568378 24.971991 6.1578951
3.9353485 -0.35691398 24.938683 6
4.0145521 -0.31279784 24.933384 6.1875
5.4305964 -0.32529542 24.971912 6
-4.6542711 -0.21037534 24.945103 7
19.134563 -0.27352804 24.912374 7
20.64369 -0.28411061 24.974508 7
20.925381 -0.29307181 24.985268 6
-4.657711 -0.18505442 24.93018 7
20.458778 -0.11871558 24.945402 7
20.377563 -0.015421629 24.916443 7
20.473455 -0.072428972 24.927677 7
20.558636 -0.039698787 24.953922 7
20.627327 -0.097535603 24.97032 7
20.782673 -0.0072908849 24.985937 7
19.25948 0.086727321 24.95871 7
19.385082 0.037814558 24.990234 7
19.443317 0.084249884 24.995438 7
19.145576 0.10981643 24.920712 7
19.243023 0.1441215 24.965176 7
27.666492 0.14822921 24.987434 7
27.377201 0.20241541 24.907158 7
27.626331 0.25777411 24.931025 7
27.724552 0.29201514 24.982237 7
26.53949 0.47800595 24.936827 7
19.265196 0.58379292 24.918257 7
19.389803 0.5373261 24.912548 7
19.431942 0.58582205 24.927948 7
19.506527 0.58884978 24.953403 7
19.237789 0.61017722 24.914295 7
19.340219 0.69082218 24.908085 7
19.43935 0.62657833 24.95039 7
19.546152 0.65246063 24.95005 7
19.646797 0.62312156 24.927431 7
19.733757 0.63381201 24.964531 7
19.82609 0.66964573 24.98978 7
19.904888 0.63493657 24.9937 7
19.617048 0.71427143 24.945492 7
19.837702 0.71167397 24.958855 7
-4.0963488 -1.3341955 25.014505 7
-4.6368656 -1.1382413 25.090715 7
-4.1486807 -1.1625652 25.05237 7
-4.6346502 -1.0836523 25.040754 7
-4.6242008 -0.94842243 25.045357 7
1.3994989 -0.91973698 25.047882 7
1.4643365 -0.96935469 25.042656 7
-4.6540899 -0.82837027 25.013073 7
1.4766049 -0.89175731 25.006594 7
-4.6628194 -0.76832372 25.044401 7
-4.597559 -0.78623873 25.018871 7
1.1945105 -0.72654569 25.059589 6
1.2843658 -0.74921936 25.037981 6
1.3136826 -0.71559298 25.047985 6
1.4984813 -0.79832232 25.007303 7
-4.6135159 -0.6794064 25.002916 7
-4.5588393 -0.66817987 25.072443 7
-4.4698901 -0.60670739 25.053116 7
7.1890774 -0.68575454 25.076664 7
-4.4294872 -0.5968169 25.098904 7
-4.6214838 -0.45132676 25.046322 7
-4.524292 -0.48472005 25.030277 7
-4.6616831 -0.35911947 25.037117 7
3.3877978 -0.38088334 25.077187 6
-4.6585159 -0.20922536 25.027912 7
5.2934184 -0.2565929 25.080978 6.3125
5.4130759 -0.21638927 25.006931 6.5
20.850588 -0.24112564 25.026674 7
21.360889 -0.29972196 25.097006 6
-4.6392345 -0.18473241 25.050718 7
5.189805 -0.11466902 25.089703 7
5.3630767 -0.10750118 25.082005 7
19.548149 -0.1849305 25.023548 7
19.652845 -0.17843193 25.05212 7
20.743607 -0.16108415 25.055573 7
20.847494 -0.17692074 25.00724 7
21.059134 -0.19770251 25.081406 7
21.107204 -0.17091596 25.081755 7
19.699242 -0.087650776 25.075003 7
20.718533 -0.064218901 25.005608 7
20.8074 -0.068972893 25.027058 7
20.99876 -0.088001288 25.069412 7
21.013224 -0.0015628189 25.046635 7
19.491314 0.011952043 25.00275 7
19.515179 0.027843654 25.008751 7
19.649164 0.057974145 25.055368 7
19.5737 0.15885764 25.054428 7
26.554453 0.11385887 25.045448 7
26.604815 0.24344477 25.031351 7
27.793373 0.25154403 25.015467 7
27.942057 0.28493577 25.042358 7
28.06377 0.26617321 25.054058 7
27.883543 0.33329365 25.001873 7
19.578541 0.59533203 25.00692 7
19.726393 0.57288212 25.001114 7
20.075821 0.59757239 25.000824 7
19.795786 0.63982052 25.044378 7
19.848101 0.61711216 25.04355 7
19.933157 0.6351617 25.045744 7
20.054955 0.62355864 25.047668 7
20.152447 0.6682303 25.078682 7
19.866558 0.71450913 25.034473 7
19.914478 0.72829944 25.02573 7
