# .PCD v0.7 - Point Cloud Data file format
VERSION 0.7
FIELDS x y z intensity
SIZE 4 4 4 4
TYPE F F F F
COUNT 1 1 1 1
WIDTH 1319
HEIGHT 1
VIEWPOINT 0 0 0 1 0 0 0
POINTS 1319
DATA ascii
28.728088 0.81690907 -64.102676 7
28.803076 0.81080055 -64.086571 7
16.721628 2.7126637 -64.262367 7
17.07472 2.6729586 -64.169899 7
17.828514 2.7295806 -64.003357 7
18.446037 2.780705 -64.022499 7
16.658386 3.1752722 -64.054794 7
17.012938 2.8897476 -64.118134 7
17.475193 3.0181694 -64.049049 7
17.616661 3.1265342 -64.103104 7
18.171045 3.0806739 -64.065819 7
18.624943 2.9409871 -64.022415 7
19.006685 3.0711169 -64.189384 7.5847502
19.394619 3.0928741 -64.287422 7
19.776844 3.0880678 -64.136948 7.9344001
20.146633 3.0908012 -64.278008 8.1689997
28.329659 2.9997878 -64.367928 7
17.500593 3.2812486 -64.131042 7
17.683804 3.2612686 -64.090607 7
18.092415 3.2312541 -64.054352 7
18.603226 3.3885331 -64.053818 7
19.096941 3.3140934 -64.329178 7
19.52142 3.2990077 -64.338493 7
20.213961 3.5053811 -64.344299 8.1674995
28.228754 3.2611284 -64.379349 7
28.785231 3.3388371 -64.094498 8.1660004
16.766722 3.7950263 -64.029716 7
29.297565 3.7713313 -64.016174 7
18.696518 4.0202365 -64.030884 8.1674995
19.046516 4.9401984 -64.171104 8.0795002
19.474274 4.9058971 -64.107056 8.0787506
19.642788 5.0391192 -64.162048 8.0769997
17.964298 5.5613208 -64.31057 8.0819998
18.297787 5.3370223 -64.21743 8.0816679
18.961542 5.5029507 -64.078629 8.0819998
19.504995 5.2821097 -64.058311 8.0810003
19.777639 5.3249764 -64.07029 8.0810003
17.764156 5.8649311 -64.265717 8.0815001
18.20583 5.7009411 -64.291443 8.0823755
18.627205 5.7770329 -64.143997 8.0820007
19.026867 5.7632337 -64.122658 8.5477142
19.543623 5.7466893 -64.123886 8.0815001
19.627974 5.6381817 -64.180382 8.0819998
28.746361 8.4926434 -64.001114 10.165
18.007746 -0.034223769 -63.735321 7
18.231262 0.23079081 -63.712822 7
18.731556 0.17300582 -63.65498 7
18.851809 0.28233421 -63.745129 7
17.947811 0.5326373 -63.817932 7
18.137604 0.51945275 -63.690941 7
18.669025 0.50354469 -63.621548 7
18.828045 0.5906322 -63.664017 7
26.159748 0.92395782 -63.759033 7
29.006781 0.80641007 -63.963959 7
16.696045 2.4619453 -63.841026 7
17.013403 2.7924423 -63.741665 7
17.248264 2.7224076 -63.746181 7
17.710501 2.7478001 -63.899479 7
18.187027 2.7564173 -63.945015 7
18.586594 2.7864149 -63.881756 7
17.019041 3.1674347 -63.735062 7
17.331932 2.9194818 -63.822914 7
17.828125 2.9964464 -63.891586 7
18.218014 2.9627838 -63.855835 7.3339286
18.612017 2.9766695 -63.809795 7.0899615
18.944153 2.9913363 -63.853233 7.9347
19.498905 3.0845509 -63.919281 8.1688337
17.197748 3.280175 -63.991188 7
17.954445 3.2256215 -63.924469 7
18.135826 3.4685652 -63.920029 7
18.523949 3.3716173 -63.970604 7.5834999
19.903793 3.4804158 -63.979713 8.1680002
20.563471 3.4703991 -63.951702 8.1665001
17.275654 3.812562 -63.855476 7
18.603872 3.8787627 -63.926849 7
19.148972 3.8023081 -63.683582 8.1680002
19.297092 3.6413569 -63.658897 8.1680002
19.719385 3.9121675 -63.689384 8.1665001
20.025269 4.0650492 -63.755142 8.1669998
18.722691 4.738028 -63.723923 8.0787497
17.147455 5.1728768 -63.875618 7
17.666084 5.1929512 -63.930832 7
18.585783 5.018887 -63.829498 8.0796661
18.926447 5.1292038 -63.906254 8.0810003
18.605612 5.3201385 -63.980209 8.0818329
18.99144 5.4507537 -63.8736 8.8068342
19.318842 5.3642097 -63.906261 8.298501
19.723154 5.4276223 -63.923435 8.8055
19.0305 5.7300601 -63.977692 8.0819998
18.516005 -0.016099904 -63.590828 7
18.187704 0.43652806 -63.525703 7
18.660143 0.42058575 -63.495487 7
17.773312 0.88557178 -63.423546 7
18.307644 0.90398675 -63.267303 7
16.698532 2.5523696 -63.506794 7
16.961727 2.7247436 -63.398312 7
17.350323 2.6611845 -63.349255 7
17.731022 2.6132295 -63.314087 7
18.167526 2.5777028 -63.304173 7
17.038752 2.8354905 -63.410595 7
17.373898 2.8394682 -63.451698 7
17.73027 2.8346615 -63.391769 7
19.27018 3.1811862 -63.468517 8.1680002
19.14463 3.4805248 -63.567577 8.1679993
19.213858 3.2666178 -63.563148 7
28.035204 10.841373 -63.405407 11.165
27.943193 15.533054 -63.264889 13.168
17.926989 0.79651827 -63.135201 7
18.091415 0.68924004 -63.122154 7
18.464706 0.81527263 -63.131271 7
17.744854 2.2567265 -63.185089 8.1674995
31.429392 3.4553216 -62.8993 8.1634998
26.222157 0.80529368 -62.74007 7
27.31002 11.77288 -62.482574 11.073
15.768801 0.48384929 -62.131416 7
26.228638 0.60692626 -62.173096 7
26.603308 0.61839902 -62.055447 7
27.072826 13.936514 -62.057785 12.073
18.209381 0.6087054 -61.659096 7
27.572557 10.712204 -61.908043 11
27.845917 10.708837 -61.81752 11.055
27.519884 13.227854 -61.940224 12
27.433176 15.822888 -61.895355 13
27.643118 15.830476 -61.822662 13
27.390034 17.773058 -61.795929 14.168
27.391926 18.570957 -61.892349 14.08275
27.687105 18.431221 -61.802986 14
18.759621 0.65212715 -61.522526 7
16.186096 -0.27644572 -60.049755 7
16.595602 -0.27599064 -60.041351 7
15.850469 0.29485139 -60.058998 7
16.26598 0.28287989 -60.111309 7
16.490149 0.30618784 -60.105145 7
16.885658 0.32258219 -60.050644 7
15.845622 0.56606412 -60.09671 7
16.268183 0.50618333 -60.078403 7
16.689528 0.50797033 -60.061966 7
16.87608 0.51509082 -60.02755 7
26.847075 10.752668 -60.003902 11.166
26.92285 12.786829 -60.041145 12.165
26.882423 15.29725 -60.086788 13.165
15.939406 -0.47701797 -59.70528 7
16.532722 -0.41910967 -59.831944 7
16.903728 -0.43714666 -59.961823 7
15.459487 0.3593275 -59.677238 7
15.766716 0.3209525 -59.893524 7
16.093576 0.19534156 -59.818081 7
16.639956 0.28137749 -59.920818 7
15.938449 0.52909607 -59.93782 7
16.290539 0.51887983 -59.920887 7
16.726061 0.51571238 -59.934357 7
16.812986 0.40960693 -59.835831 7
18.54339 0.43878192 -59.631271 7
26.841497 10.728971 -59.94899 11.166
27.025486 12.647226 -59.750637 12
26.993086 15.138694 -59.804207 13
26.95661 17.619923 -59.848236 14
19.062965 -0.52743179 -59.245808 7
18.216007 -0.066460073 -59.406677 7
18.731548 -0.04214032 -59.460197 7
18.814621 -0.31748366 -59.505787 7
15.561178 0.25732809 -59.435799 7
18.452223 0.24355879 -59.500702 7
18.906488 0.3469604 -59.4487 7
28.066963 3.3008413 -58.591446 8.1634998
28.589457 2.9742298 -58.390762 8.1634998
29.389729 3.3380065 -58.233372 8.16325
25.453314 2.6856623 -56.45763 7
25.16876 4.6558189 -56.545902 8
25.457148 4.6079988 -56.454567 8
25.530851 4.8002658 -56.424706 8.073
25.100172 6.6674209 -56.578644 9
25.386717 6.5975151 -56.468094 9
25.011957 8.7600784 -56.564301 10
25.429068 8.5744543 -56.421867 10
25.351835 8.9696674 -56.449455 10.0765
14.053986 0.24943729 -56.265358 7
25.910597 0.68316871 -56.190292 7
26.104992 0.69035494 -56.116993 7
26.162415 0.82225436 -56.045319 7
25.681286 2.6345985 -56.359894 7
25.868639 3.0016479 -56.191418 8.0826674
26.153528 3.0048013 -56.075737 8.0494499
26.618362 3.1644492 -56.057636 7
26.633179 3.3061032 -56.053249 7
25.891823 5.2916203 -56.208954 9
26.120808 5.2749987 -56.099415 9
27.591328 5.4274001 -56.064224 8.0775003
25.918442 7.5566664 -56.175484 10
26.108334 7.5355263 -56.047997 10
25.823801 7.7424469 -56.250069 10.0415
26.069992 7.6680984 -56.126778 10.041375
25.852655 9.7281761 -56.190636 11
27.045595 0.33684531 -55.801514 7
26.294401 0.73496199 -55.99625 7
26.465307 0.72292322 -55.931732 7
26.785011 0.88837874 -55.972996 7
26.862309 0.82484478 -55.989574 7
27.095049 2.5587685 -55.811134 8.1634998
26.49382 3.0479994 -55.926392 8
27.0408 3.0840607 -55.714211 7
27.549274 3.0910535 -55.701965 7
28.047112 3.0966167 -55.653137 7
27.173471 3.556473 -55.867085 8.1645002
28.157475 4.0067563 -55.797897 8.1630001
25.406866 11.884169 -55.68401 12
25.352148 12.007289 -55.701691 12.1645
25.355116 14.226551 -55.697773 13
24.687284 14.543041 -55.773922 13.073
24.596018 16.610922 -55.726891 14.073
14.879267 -1.2179065 -55.373714 7
15.44901 -0.63569057 -55.295185 7
14.695914 -0.19910544 -55.38945 7
13.961098 0.26902974 -55.315487 7
28.535368 3.100944 -55.572701 7
25.337162 12.089845 -55.469872 12.1645
25.168432 14.39768 -55.216843 13.1645
25.235907 16.833864 -55.526848 14.1645
15.028419 -0.61300671 -54.556347 7
15.452101 -0.42183033 -54.579681 7
13.832542 0.049949467 -54.408691 7
14.910264 0.23886432 -54.65657 7
15.296817 0.22011709 -54.590271 7
16.154572 2.6454172 -54.402176 8.1680002
13.916545 -0.41756079 -54.390656 7
14.168316 -0.096837014 -54.222687 7
13.871934 0.097901285 -54.361488 7
14.240462 0.21434069 -54.24892 7
14.505016 0.30389223 -54.186741 7
14.982462 0.27062106 -54.004227 7
16.360537 0.38858712 -54.166161 7
16.599091 0.22348578 -54.09528 7
16.901613 0.23821032 -54.086578 7
13.996626 0.58729452 -54.302612 7
14.19082 0.45594585 -54.181808 7
14.464493 0.45318851 -54.269566 7
14.370881 2.5101535 -54.206741 7
16.60207 2.7253218 -54.12019 8.1684999
15.02371 5.2456317 -54.101402 8.0834999
24.795458 13.721309 -54.385082 13.167
24.800028 15.83114 -54.025669 14.1675
24.761637 16.278074 -54.064964 14
24.821213 16.27437 -54.058868 14.1645
14.694949 -0.41749859 -53.637138 7
17.029345 -0.68906933 -53.960548 7
15.197425 0.27594432 -53.856102 7
15.54711 0.3029826 -53.708328 7
15.756196 0.07081303 -53.627827 7
16.284876 0.24184069 -53.781044 7
16.542208 0.35173228 -53.778934 7
15.500552 2.6365352 -53.657616 7
15.601793 2.6618922 -53.62178 7
16.261499 2.6724696 -53.885727 8.1684999
16.569807 2.6935179 -53.699963 8.1684999
15.913261 3.0733025 -53.953545 7
16.210943 3.1310096 -53.854401 7.58425
16.50378 3.1128252 -53.837872 7
16.033928 3.9790659 -53.677265 8.0799999
15.883949 4.2915711 -53.721092 8.0815001
16.204145 4.3274345 -53.783134 8.0810003
16.108 4.4620337 -53.67065 8.0819998
15.775518 5.0503659 -53.753731 8.0822506
14.196728 5.3135576 -53.786133 8.0825005
15.009304 5.4000149 -53.632626 9.1702499
15.288105 5.2285738 -53.797829 8.0784998
14.620148 6.2389679 -53.798191 9.0821667
25.010834 11.143226 -53.75787 12.1675
24.914694 11.669406 -53.913116 12.054833
24.780767 13.964968 -53.968399 13
24.952692 13.868338 -53.906029 13.099299
25.182812 16.118618 -53.798313 14.1645
15.124523 -1.3761877 -53.277466 7
14.819425 -0.84708399 -53.52359 7
14.536677 -0.73882532 -53.42569 7
14.845754 -0.4263348 -53.288921 7
14.961569 -0.32083288 -53.317207 7
15.277309 -0.090210825 -53.516438 7
15.708693 -0.039068319 -53.399254 7
16.09593 -0.051095225 -53.387302 7
16.472208 -0.033228047 -53.517242 7
14.925413 0.18100342 -53.38446 7
15.369676 0.23395501 -53.466492 7
16.686134 0.005316928 -53.490509 7
15.109681 2.6267147 -53.391842 7
15.424206 2.466701 -53.4184 7
15.678078 2.6191802 -53.527992 7
16.385708 2.6258388 -53.552921 8.1689997
16.370483 2.8466425 -53.535637 8.1692505
16.543064 2.9561453 -53.566208 8.1695004
15.758498 3.9595854 -53.513699 8.0790005
15.987309 4.008153 -53.370056 8.0780001
16.261501 4.219326 -53.402061 8.0812492
15.431293 4.7247329 -53.200554 8.0825005
16.254784 4.646986 -53.286068 8.6260004
14.673071 5.0178928 -53.414959 8.6254997
15.018142 5.0539551 -53.409454 8.8978748
15.436752 4.9145846 -53.353973 8.8061666
15.804055 5.0077195 -53.419189 8.6257496
16.147102 4.9553127 -53.359585 8.0825005
14.184425 5.3245807 -53.300014 8.0831671
14.637393 5.2332935 -53.383842 8.0819998
15.0668 5.3621912 -53.354015 8.4903746
15.352763 5.3207278 -53.320629 8.083333
15.678894 5.302505 -53.434879 8.0834999
15.03376 5.8022041 -53.35915 9.0791664
15.384673 5.7916946 -53.343689 9.0788336
15.698511 -1.344807 -53.139175 7
15.217929 -1.1975901 -53.177208 7
15.769011 -1.1689553 -53.033211 7
16.345181 -1.1415589 -53.004044 7
16.680674 -1.0841486 -52.863667 7
15.026521 -0.7070632 -52.814873 7
15.319735 -0.4103272 -53.085686 7
15.330249 -0.24750274 -53.067245 7
15.718593 -0.28857148 -52.967628 7
16.118397 -0.26856735 -53.100449 7
15.555473 0.21346989 -53.02478 7
15.797912 0.286513 -53.093506 7
16.137783 0.20865571 -53.15773 7
27.607779 2.9594297 -53.018562 7
16.063503 3.2534561 -52.887062 8.1684999
16.463776 3.3710206 -53.007523 8.1669998
26.808681 3.41538 -53.05521 8.1634998
15.43154 4.3230877 -52.969349 8.0819006
14.981621 4.7802682 -53.061665 8.0828333
15.390497 4.6505704 -52.872322 8.0825005
15.80496 4.6199226 -52.991726 8.6256256
16.197628 4.6606851 -53.069035 8.8974371
14.618168 5.1201644 -52.992138 8.0830002
14.93802 4.9800363 -52.982471 8.083333
15.397676 4.931674 -53.179539 9.1689997
15.645237 4.8605318 -52.98074 8.6264992
16.134632 4.8311844 -53.093491 8.0825005
14.51664 5.2116985 -52.976692 8.0830002
15.085909 5.8019366 -53.15419 8.0830002
14.766335 6.8889799 -53.060066 8.0845003
24.115627 12.099169 -52.909492 12.073
24.810961 13.628842 -52.844086 13.1645
14.244039 -0.85634023 -52.51696 7
16.017004 -0.10922301 -52.688591 7
15.152964 2.2361493 -52.417435 7
14.448378 2.6357656 -52.499279 7
14.981418 2.5107472 -52.435028 7.7800002
15.38271 2.5716734 -52.427738 8.1693335
15.62998 2.589608 -52.532715 8.1674995
14.26056 2.9418011 -52.566132 7
14.758014 2.9781594 -52.475155 7
14.898644 2.8039556 -52.440804 7
16.023497 3.3068247 -52.730255 8.1684999
15.377608 3.8910713 -52.436871 8.079834
15.249891 4.2906661 -52.692123 8.0825005
15.604329 4.003479 -52.471016 8.0775003
14.336199 4.4146967 -52.429291 7
15.165924 4.4912443 -52.558361 8.0830002
15.834044 4.5459342 -52.583374 9.1688337
16.189995 4.4041867 -52.741753 9.1715002
24.373526 11.554314 -52.580814 12
24.55619 11.368632 -52.56089 12
24.705629 13.474049 -52.676006 13
24.342989 13.821642 -52.529869 13
24.455345 13.770323 -52.58329 13
24.425983 15.97174 -52.524677 14
24.11113 16.777685 -52.583134 14.166
13.962236 2.7544696 -52.332932 7
14.705534 2.5306101 -52.373962 8.1697502
15.04008 2.560874 -52.362995 8.1694174
15.402784 2.6322739 -52.337147 8.1682997
15.742695 2.7765002 -52.356518 8.1700001
15.454659 2.9164557 -52.277939 8.1690006
15.682683 2.9221165 -52.277134 8.1689997
13.90197 4.3938808 -52.31208 7
14.984391 4.4311438 -52.352264 7
24.619783 11.625281 -52.285767 12.1655
24.322573 12.985044 -52.375088 13.1675
24.245537 15.202909 -52.382103 14.1675
24.251755 15.64451 -52.348969 14.1645
24.234344 16.136505 -52.358696 14.1655
24.046654 11.08611 -51.641857 12.1645
24.230518 11.109636 -51.427944 12.1645
24.118904 15.326242 -51.482677 14
3.3071532 -0.65890998 -50.492702 7
13.294271 2.2335329 -50.478256 7
12.716274 2.6366711 -50.58416 7
12.996355 2.6067438 -50.539436 7
13.342149 2.4578369 -50.444809 7
3.0775385 -0.83945847 -50.29034 7
13.429965 2.3352799 -50.220493 7.780333
13.919863 2.2650464 -50.073891 7.58425
13.48412 2.6010966 -50.076366 7
13.818042 2.5474656 -50.09473 7.1946664
14.149537 2.5714331 -50.090775 7
13.826155 3.1170211 -50.027603 7
14.267028 3.1397393 -50.076126 7
13.551938 2.3318839 -49.800018 8.1698332
13.842628 2.3573794 -49.774242 8.1695004
14.179895 2.3351097 -49.911308 7.585
13.321717 2.5108209 -49.870354 7
13.814874 2.499655 -49.93927 7
14.201203 2.4732475 -49.87915 7.5847497
26.256313 3.3763936 -49.838078 8.1630001
11.272655 4.4230881 -49.345238 8.085
14.254166 4.4550128 -49.320477 8.0834999
12.119758 5.1303606 -49.380531 8.6259995
11.731716 5.7504234 -49.517265 9.0834999
12.21924 6.0117059 -49.243942 9.0839996
12.27913 -0.0024951149 -49.039589 7
12.241755 0.26832747 -48.993988 7
12.514853 0.17067403 -48.974342 7
12.307261 0.40165934 -48.920158 7
10.862184 1.346328 -48.911816 7
12.267591 1.789004 -48.931541 8.1684999
11.795867 2.1938307 -48.987316 7
12.211211 2.2849727 -49.047142 7.4679999
12.821918 2.0925851 -48.93153 7
11.903802 2.508986 -49.157631 7
12.216969 2.549778 -49.091007 7
12.491282 2.6096478 -49.093029 7
12.474237 3.0171175 -49.086456 7
11.762789 4.1307683 -48.975853 7
13.775358 4.3747392 -49.018227 8.0830002
14.151584 4.5279207 -49.030861 8.0839996
12.353041 5.0150208 -48.827385 9.1700001
12.564735 5.0710106 -48.947384 8.807333
13.071805 5.0142016 -48.888592 8.9699001
13.235475 5.1265764 -48.901455 9.1704998
13.766211 4.884625 -48.878731 8.0790005
12.213223 5.5431933 -48.85556 9.0830002
13.128274 5.2228265 -48.830231 9.1704998
12.18705 5.7733636 -48.932602 9.0836668
12.733635 5.777986 -48.990669 9.0834999
12.859857 5.8419647 -48.909019 9.0834999
13.448 5.7722316 -48.814495 9.0825005
12.393721 6.0569811 -49.097912 9.0839996
12.637037 6.040997 -48.947643 9.0839996
12.879431 6.2011461 -48.986748 9.0839996
13.215588 6.0288281 -48.888931 9.0834999
22.454067 9.3234615 -48.84737 11
22.480804 12.963855 -48.807732 13.07375
26.286308 20.592335 -48.804897 14.165
25.909916 21.315493 -48.875946 14.1655
22.187664 22.127949 -48.818687 14.0785
2.5601473 -0.64948249 -48.645508 7
2.6143312 -0.24915604 -48.737717 7
23.187986 0.59363204 -48.490673 7
23.274906 0.63229156 -48.41547 7
12.062283 1.9405397 -48.428726 7
11.775602 2.2761631 -48.475838 7
12.013294 2.1589422 -48.710098 7
22.975632 2.3056059 -48.651447 7
11.649254 2.4282229 -48.474358 7
12.010149 2.4049869 -48.449497 7
23.133158 2.5811818 -48.565842 7.6666665
23.297636 2.6631107 -48.459782 8
23.787598 2.9895251 -48.410435 7
23.062496 3.9198322 -48.60376 8
10.985878 4.1368384 -48.469604 8.085
14.205694 4.1678667 -48.434433 9.1684999
22.70969 4.0369473 -48.722717 8
22.91184 4.1052771 -48.647053 8
12.446047 4.693737 -48.554993 9.1684999
13.556767 4.7504601 -48.686813 9.1680002
13.616776 4.6853566 -48.655983 9.1689997
14.202011 4.5910482 -48.40081 8.0834999
23.135176 4.708601 -48.542461 9
23.30892 4.679471 -48.458199 9
12.177994 5.0135536 -48.619484 8.6260004
13.090927 5.1145926 -48.736713 9.1707497
13.339035 5.0918207 -48.684341 8.8070002
13.800416 5.1696296 -48.433098 9.0795002
14.03863 5.1920557 -48.498299 9.0804996
23.145227 4.8942294 -48.569267 9
23.346535 4.9204221 -48.499531 9.027667
12.177895 5.5913186 -48.788189 9.0830002
11.887139 5.6358452 -48.701965 9.0834999
13.563774 5.6410341 -48.730587 9.0819998
22.705038 5.7855277 -48.739155 9
22.962261 5.7968354 -48.626812 9
23.152016 6.6552835 -48.502472 10
23.280014 6.6664863 -48.443546 10
23.108109 7.0758162 -48.587231 10.0332
23.305159 6.9478869 -48.487915 10
22.647118 7.5652614 -48.758198 10
22.959381 7.4043274 -48.637314 10
22.624779 7.602632 -48.746944 10
22.878822 7.6850977 -48.652237 10.03825
23.096308 8.6265783 -48.50248 11
23.27874 8.7042742 -48.455235 11
22.678364 9.0912457 -48.725792 11
23.061165 9.0129414 -48.58263 11
23.339092 8.9245911 -48.455215 11
22.372515 9.3116579 -48.781715 11
22.604965 9.3924665 -48.723927 11.010928
23.008284 9.3127337 -48.657898 11
23.265831 9.5229893 -48.567734 11
23.042488 10.676604 -48.548111 12
23.274965 10.706287 -48.476822 12
23.004868 10.994915 -48.638287 12
23.250898 10.98727 -48.528992 12
23.027388 11.345659 -48.64254 12
23.262314 11.321362 -48.553421 12
23.096073 12.631474 -48.51115 13.082251
23.261448 12.797083 -48.502033 13
22.658163 13.078566 -48.741211 13.0755
23.040581 12.960926 -48.585155 13.041375
23.395676 13.00125 -48.466869 13
22.456717 13.269504 -48.763866 13.0765
23.458447 13.361801 -48.453732 13
23.610319 13.295357 -48.402206 13
22.972956 13.994898 -48.695663 13.166
23.582094 13.606277 -48.439407 13
22.560133 14.769187 -48.684502 14.07325
22.954582 14.476124 -48.540859 14.0725
22.349421 14.978121 -48.717628 14.0755
22.659487 14.901714 -48.636276 14.074249
23.020866 15.014057 -48.513184 14.08275
23.296194 15.032281 -48.457142 14
22.882757 16.308857 -48.669113 14.166
23.534355 16.249142 -48.41127 14
23.192999 16.745331 -48.591396 14.165
23.30987 16.495718 -48.478832 14.1655
23.062912 16.87385 -48.613239 14.165
23.063997 18.331175 -48.759579 13.168
23.599541 18.645773 -48.722485 13.1675
23.097498 19.190836 -48.700066 14.1655
22.649897 19.446898 -48.734226 14.1665
23.045364 19.33243 -48.633221 14.165833
23.35083 19.331808 -48.506054 14.1665
23.827997 19.426825 -48.463703 14.165334
22.687769 19.969019 -48.759392 14.1665
23.524076 19.722195 -48.498383 14.1665
23.693111 19.864489 -48.433994 14.1665
22.992224 20.227438 -48.663799 14.166167
23.390785 20.173552 -48.578011 14.16625
23.777866 20.136898 -48.471443 14.166
24.010557 20.188978 -48.472481 14.164
23.018147 20.519102 -48.665291 14.167
24.14851 20.431292 -48.419853 14.1655
22.730797 20.818047 -48.786598 14.167
22.998831 21.001797 -48.689995 14.167125
24.24659 20.876638 -48.413651 14.1665
22.673098 21.492378 -48.724041 14.109001
23.020864 21.476189 -48.661919 14.145625
23.51091 21.340824 -48.579693 14.16725
23.658188 21.564375 -48.572815 14.167
24.013523 21.560352 -48.465477 14.1675
22.851257 21.660364 -48.58741 14.0795
23.205166 21.883856 -48.511875 14.0785
23.708107 21.869101 -48.680264 14.1675
22.532902 22.144859 -48.669716 14.0785
23.36643 22.162632 -48.527824 14.078
2.0654297 -0.92255175 -48.044853 7
24.526152 0.37185919 -48.070549 7
23.44631 0.61878121 -48.356316 7
23.6185 0.64951122 -48.30505 7
24.075165 0.71468002 -48.26442 7
24.400824 0.6785363 -48.095318 7
24.21525 1.0290126 -48.172497 7
10.250686 1.8462138 -48.239292 7
12.602537 1.9068624 -48.354122 7
11.904665 2.2873173 -48.385681 7
12.334064 2.3443322 -48.175331 7
12.572807 2.3054874 -48.173607 7.2341003
12.897666 2.2644961 -48.027561 8.1704998
12.338249 2.4277897 -48.157753 7
12.544469 2.4651792 -48.203083 7
13.229526 2.5912237 -48.280746 7
23.4636 2.6357615 -48.346893 8
23.743248 2.6435294 -48.229099 7.909091
24.094311 2.7691054 -48.24147 7
10.785358 2.8968759 -48.118053 7
23.970903 2.9465785 -48.328369 7
24.062117 2.8511486 -48.308685 7
24.241802 3.3419843 -48.16275 8.165
24.479761 3.4184742 -48.084553 8.1640005
14.330929 3.6526999 -48.06921 8.0780001
13.151262 4.3442435 -48.210304 9.1704998
13.341342 4.1517282 -48.018265 9.1680002
14.057669 4.2752848 -48.107155 9.1700001
14.427391 4.1997309 -48.384254 9.1684999
12.770239 4.7085938 -48.017761 8.085
12.827201 4.7957625 -48.016415 8.0845003
13.305773 4.7565084 -48.03978 8.0822496
13.780223 4.538806 -48.193375 8.3550005
14.267558 4.6067791 -48.311718 8.08325
14.551487 4.4409919 -48.083927 9.1680002
23.490915 4.6098251 -48.341949 9
23.780993 4.6294322 -48.227253 9
24.123474 4.6421828 -48.33667 8.0778341
24.624218 4.605 -48.240452 8.0773745
25.153936 4.4968195 -48.156105 8.0762501
25.334938 4.5669632 -48.038303 8.0769997
11.584119 4.8583479 -48.38134 8.085
12.948833 5.0290184 -48.13377 9.0792503
13.202591 5.0948424 -48.010441 9.0810003
13.754927 4.9277139 -48.125 8.5809994
14.177884 4.820899 -48.196121 8.0830002
23.537773 4.8003616 -48.380211 9
11.76893 5.5009222 -48.252403 9.0830002
12.730564 5.2268596 -48.11517 9.0819998
12.871923 5.5467257 -48.015427 9.0825005
13.520786 5.2133126 -48.083267 9.0784998
11.646606 5.6457443 -48.229599 9.0839996
12.550586 5.6532421 -48.149052 9.0830002
23.43894 6.5944691 -48.345409 10
23.738482 6.5919328 -48.216576 10
24.010416 6.5132489 -48.060253 10
23.50675 6.832737 -48.372719 10
23.748896 6.9503994 -48.32029 10
23.448074 8.5719795 -48.350548 11
23.639179 8.5745459 -48.292805 11
23.362976 12.192839 -48.271309 13.167
23.381374 12.705898 -48.370808 13.164
23.583529 12.996696 -48.389549 13
23.679708 12.951812 -48.358189 13
23.67701 13.251846 -48.379494 13
23.380873 14.222149 -48.225338 14.167
23.122892 14.493237 -48.378208 14.1645
23.410767 14.716899 -48.301548 14.163999
23.828485 14.648346 -48.185963 14.164
23.442911 14.888004 -48.370049 14
23.737238 15.030314 -48.27581 14.023572
23.757685 15.482083 -48.295246 14
23.769075 15.833436 -48.277542 14
23.696339 16.013302 -48.354908 14
24.71287 19.681923 -48.191139 14.166
24.928814 19.904926 -48.151108 14.166
24.542318 20.196629 -48.257648 14.165833
24.939842 20.282209 -48.225033 14.164833
24.294111 20.577053 -48.366501 14.1665
24.283184 21.002661 -48.357529 14.167
24.547041 21.115742 -48.31778 14.16625
24.620386 21.448204 -48.309704 14.167
2.2056704 -0.35568929 -47.606697 7
26.294952 0.56727266 -47.705776 7
26.47131 0.59964371 -47.645535 7
26.496975 0.85098481 -47.634296 7
12.378479 1.9560819 -47.662918 7
12.983589 1.8933541 -47.783005 7
13.395751 1.8488284 -47.694782 7
13.794443 1.8940805 -47.675541 7
14.495544 1.8460817 -47.620853 7
12.691586 2.1933818 -47.889408 7
12.982874 2.1465924 -47.714981 7
13.589907 2.2908916 -47.603565 7
13.743869 2.27827 -47.606003 7
13.486996 2.7460611 -47.601482 7
13.903094 2.5022345 -47.670933 7.3894997
14.296474 2.7469511 -47.602276 8.1674995
14.525822 2.6283231 -47.868126 7
25.801262 2.7666767 -47.964039 7
26.15192 2.6810503 -47.789093 7
26.432709 2.7475135 -47.702362 7.3876667
13.881965 3.0320868 -47.64122 8.1689997
14.18207 3.0715709 -47.603363 8.1674995
26.20043 2.9159217 -47.710953 8.1637497
11.441602 3.4680588 -47.600803 8.0795002
13.509714 3.5771718 -47.603958 8.0784998
13.717257 3.4624069 -47.662357 8.0796671
14.198694 3.5751657 -47.961128 8.0797501
14.487874 3.2050941 -47.642914 8.1680002
11.538811 3.6885862 -47.767284 8.0830002
11.619463 3.8146954 -47.65242 8.0834999
13.535301 3.8244491 -47.70956 8.0415001
13.87367 3.8274071 -47.746796 8.0813751
14.114723 3.953253 -47.602158 8.0825005
11.551338 4.1854377 -47.763824 8.0839996
13.397475 4.2440772 -47.679337 8.3549995
13.770734 4.2760863 -47.783405 8.8077497
14.146771 4.235302 -47.891544 8.8071661
12.318155 4.6978731 -47.742462 8.0852499
12.785012 4.6290431 -47.971169 8.0834999
13.018145 4.6712537 -47.834686 8.3934994
13.38057 4.5345039 -47.755672 8.3940716
13.812208 4.5609426 -47.890862 8.8964996
14.1471 4.5651016 -47.650959 8.6227493
25.493999 4.686388 -47.997524 8.0769997
25.826502 4.6222706 -47.908062 8.0762005
26.193329 4.5334239 -47.786972 8.0756006
12.161784 5.096024 -47.744816 9.0275002
12.542273 5.1077242 -47.756451 9.0323
12.960958 4.9510331 -47.854591 8.6995001
13.401721 4.9731445 -47.85738 8.4306669
14.273165 4.8553782 -47.906513 8.0684996
12.607594 5.5930748 -47.90538 9.0830002
13.124729 5.4936686 -47.872318 9
13.324178 5.423687 -47.765034 8.7218332
13.708042 5.2400875 -47.984909 9.0815001
12.989428 5.696352 -47.937939 9.0830002
13.051108 6.3396087 -47.744576 8.085
12.004894 -0.82700413 -47.216366 7
2.0725236 -0.54014564 -47.571766 7
11.780995 0.33429122 -47.289948 7
12.455493 0.35819566 -47.387535 7
12.92187 0.31476277 -47.453075 7
13.336329 0.31691384 -47.40786 7
11.383183 0.54295295 -47.358101 7
11.846842 0.57564849 -47.563786 7
13.043623 0.46544114 -47.242405 7
13.457155 0.55765533 -47.38496 7
13.679449 0.60557288 -47.505859 7
14.111761 0.62045509 -47.494728 7
26.636362 0.58901554 -47.584915 7
10.819629 1.8592112 -47.300785 7
11.956997 1.9299414 -47.240555 8.1639996
12.250914 1.876713 -47.334991 7
12.680596 1.8758192 -47.406132 7
12.982697 1.8674068 -47.434933 7
13.444503 1.8720493 -47.376492 7.1946664
13.898872 1.8453736 -47.353424 7
14.118746 1.9182048 -47.517769 7
14.686461 1.8931284 -47.521015 7
11.097835 2.2492216 -47.348587 7
11.381838 2.2844329 -47.345249 7.2341003
11.706659 2.2964275 -47.319534 7.6503887
12.194272 2.1597457 -47.349186 7.1553335
12.567686 2.1632504 -47.365807 7.1798849
12.976425 2.1827877 -47.350342 7.1300278
13.393857 2.2183006 -47.368557 7.2031083
13.784975 2.2326863 -47.394646 7.3893571
14.181694 2.3049302 -47.471058 7.9724174
14.913353 2.0443695 -47.423637 7
11.466146 2.5221775 -47.358303 7.3901668
11.795032 2.5414636 -47.32658 8.1703005
12.201481 2.5307992 -47.360756 7.5854998
12.988416 2.541635 -47.281017 7.2341003
13.55432 2.5969255 -47.293011 7.7801666
13.813301 2.5630059 -47.442501 7.8766251
14.203206 2.6362126 -47.499111 8.1699991
26.6465 2.6704876 -47.554897 8.1630001
11.739855 2.9591 -47.217995 8.1684999
13.764789 2.8744962 -47.392689 8.1693335
26.653482 2.9169552 -47.559143 8.1633329
26.81587 2.8965342 -47.529736 8.1634998
11.493687 3.3577747 -47.316998 8.0810003
11.769223 3.4591191 -47.368622 8.0275002
12.145375 3.3855813 -47.261318 8.0815001
12.677189 3.5075853 -47.250233 8.0819998
12.948667 3.4199781 -47.352882 8.079875
13.310444 3.4798617 -47.555763 8.0812502
13.620295 3.5749669 -47.576992 8.0815001
11.144394 3.8018153 -47.447575 8.0839996
11.407346 3.8083601 -47.469345 8.0839996
11.748034 3.7665706 -47.259304 8.0834999
12.953888 3.7511485 -47.354469 8.0412502
13.346101 3.8188789 -47.530254 8.0548334
13.613037 3.8561628 -47.581532 8.0825005
14.116127 3.7969003 -47.594635 8.0815001
11.182935 4.276618 -47.408352 8.0839996
11.353229 4.2181368 -47.396519 7.903666
11.758989 4.1836767 -47.337502 8.3552494
12.275154 4.0499353 -47.30954 7
12.515654 4.3592381 -47.233925 9.1700001
12.929387 4.3527608 -47.480831 8.446166
13.49952 4.1970406 -47.425385 9.1688337
13.69619 4.193572 -47.402718 9.1698751
11.048354 4.4575667 -47.419434 8.0852499
11.549119 4.6462884 -47.364254 8.0848751
11.783072 4.6414256 -47.293655 8.0824995
12.2048 4.6952376 -47.36433 8.0825005
13.009984 4.4900255 -47.460453 8.7309999
13.315286 4.7949638 -47.23278 8.066
13.930088 4.6327763 -47.559032 8.0714998
11.424033 4.9413948 -47.315731 9.0810003
11.797508 5.0360584 -47.274189 9.0275002
12.123713 4.978168 -47.43092 9.0809994
12.536408 4.9128523 -47.4856 8.3127499
13.045795 5.0072446 -47.527496 8.54175
12.296387 5.3048782 -47.382099 8.58325
12.479636 5.3928456 -47.22538 9
1.9017611 -0.97257876 -47.150795 7
11.836181 -1.1540905 -47.15197 7
11.541903 -0.1392931 -47.19804 7
11.792566 -0.1888703 -47.153633 7
11.44101 0.15571333 -47.18314 7
11.75949 0.2042335 -47.160835 7
13.094613 0.6572606 -47.031288 7
12.313267 1.8429661 -47.02475 7
12.524963 1.8479338 -47.097824 7.1947498
13.342626 1.8575189 -46.917614 8.1625004
11.900534 2.3157113 -47.185081 8.1709995
12.19761 2.2157562 -47.071064 7.6671433
12.630675 2.182308 -47.093769 7.2599998
13.043573 2.31914 -47.105824 8.1686001
13.391176 2.2101328 -47.133522 7.8766251
13.776951 2.1674521 -47.167198 7.58425
11.832096 2.4750488 -47.189835 8.1709995
12.196485 2.5547817 -47.102848 8.1703329
12.547549 2.6779737 -46.943562 8.1703329
13.00402 2.5637898 -47.073536 8.1700716
13.381786 2.5100667 -47.082439 8.170083
12.639648 2.9393713 -46.870327 7
13.027805 2.9798713 -46.923737 7.5840001
13.274379 3.1252468 -46.84893 8.1684999
11.935336 3.3708999 -47.14703 8.0807505
12.239082 3.4538798 -47.092758 8.0198746
12.650983 3.481107 -47.115826 8.0273333
11.90027 3.7204936 -47.143425 8.0830002
12.18452 3.7853458 -46.991573 8.214571
12.56731 3.7827184 -46.975418 8.0624371
12.974287 3.7585759 -46.978935 8.0825005
13.221996 3.8733363 -47.059444 8.0830002
11.531529 4.2519913 -46.922192 8.066
11.969435 4.3131642 -47.040951 8.0839996
12.200976 4.2585421 -47.039642 8.2043886
12.676587 4.189877 -46.916843 7.9288568
13.01475 4.100728 -47.045887 8.0842991
13.355334 4.2387476 -47.051777 8.0830002
11.862626 4.5533385 -46.889309 8.0635004
12.144551 4.5075932 -47.113644 8.085
12.678416 4.5512724 -47.049999 8.0760002
11.885983 4.8083897 -47.112419 9.0790005
12.587301 5.4040551 -47.108166 9.0412502
12.001587 6.255589 -47.184715 8.0854998
12.651436 2.6333487 -46.789413 8.1709995
12.657631 2.9226913 -46.787888 8.1695004
13.349463 4.0678072 -46.667473 9.1700001
1.4529514 -0.68110061 -46.235527 7
1.4323959 -0.9646017 -45.960136 7
10.043379 0.25190723 -45.369808 7
9.8955069 0.23017275 -44.875893 7
21.175972 10.244774 -45.05518 12.0745
9.8979225 0.30862451 -44.630043 7
13.012046 -0.93355644 -44.06052 7
0.64800638 0.29071423 -44.362114 7
9.968791 0.27108863 -44.030716 7
11.085634 0.11867748 -44.143745 7
12.723482 0.37028301 -44.047588 7
13.164304 0.65842986 -44.08532 7
0.87396145 -0.90081203 -43.809525 7
9.9414387 -0.29304385 -43.697449 7
10.03898 -0.0012583435 -43.832035 7
9.4241867 0.16229466 -43.652206 7
11.1056 0.00037360191 -43.818748 7
12.680541 0.26118889 -43.939262 7
10.27809 -1.0402613 -43.220371 7
10.204391 -0.16292265 -43.342556 7
10.562833 -0.018096305 -43.341568 7
9.5239573 0.11420755 -43.38081 7
10.235391 0.21378767 -43.309536 7
10.567076 0.15620781 -43.29715 7
10.83991 0.14176936 -43.28558 7
9.901062 1.9246796 -43.206337 7
10.165759 1.9346756 -43.307632 7
11.421512 1.8667046 -43.279247 7
11.686755 1.774446 -43.333118 7
9.8625793 2.1327324 -43.243378 7
11.079495 2.1892469 -43.359161 7
11.535566 2.1407123 -43.383694 7
0.93129253 -1.704699 -42.979492 7
0.35191679 -0.80287898 -43.064667 7
10.509729 -0.47338542 -43.056797 7
10.299086 -0.14779195 -43.050156 7
10.726386 -0.22031896 -43.093014 7
9.8341408 0.05912422 -43.165985 7
10.28076 0.22660081 -43.089481 7
10.601734 0.27734736 -43.022388 7
10.825573 0.071025461 -42.820995 7
11.958929 0.5678395 -43.030148 7
10.71634 1.5972894 -42.891514 7
11.345451 1.5868145 -43.027287 7
9.7556849 1.8163247 -42.987045 7
10.170692 1.7540758 -43.054955 7
10.680459 1.9989347 -42.860992 7
11.040968 1.8875148 -42.978802 7
11.532261 1.6538367 -43.046783 7
11.713228 1.7972217 -43.128971 7
12.199707 1.7687404 -43.112457 7
12.652142 1.6869409 -43.136959 7
10.715548 2.0995731 -42.831928 7
10.986963 2.1435575 -43.041634 7
11.214192 2.0941951 -42.914177 7
11.13711 2.7227864 -43.069412 7
0.17498016 -1.5615313 -42.476448 7
0.48286343 -0.98288679 -42.528984 7
9.1218166 0.12798496 -42.459473 7
10.340858 0.20561133 -42.698071 7
10.788209 0.20038678 -42.695114 7
11.071449 0.26412883 -42.634609 7
11.424209 0.22095084 -42.651054 7
11.485729 0.50732708 -42.755352 7
9.3881035 1.513126 -42.435287 7
10.237378 1.5692807 -42.676609 7
9.1501503 1.7329938 -42.606472 7
9.2427807 1.7273211 -42.586819 7
9.9378109 1.753861 -42.452023 7
10.189048 1.8561839 -42.478348 7
10.663977 1.8646002 -42.482533 7
11.034619 1.7645379 -42.51049 7
11.363595 1.866159 -42.562233 7
11.877545 1.6852998 -42.726589 7
12.063885 1.7136822 -42.44989 7
10.230024 2.1073813 -42.540081 7
10.581539 2.0963607 -42.488926 7
10.966086 2.0591929 -42.701313 7
11.349513 2.0268636 -42.680717 7.2341003
1.5577722 -1.4319087 -42.122337 7
0.66634369 -0.89242709 -42.028778 7
0.43472672 -0.71815133 -42.294754 7
9.1676426 0.26217771 -42.360371 7
9.9558468 0.24449445 -42.078812 7
10.187732 0.29762325 -42.046741 7
11.057964 0.1990936 -42.317997 7
11.038515 0.53308505 -42.107029 7
9.1158829 1.5576872 -42.182079 7
9.4992905 1.5716417 -42.113003 7
9.8954973 1.5251949 -42.15583 7
10.294016 1.5414718 -42.159405 7
10.70713 1.5621828 -42.288708 7
8.9999571 1.769675 -42.251991 7
9.8505983 1.6654091 -42.365929 7
10.199814 1.6923803 -42.304897 7
10.534821 1.8203056 -42.29578 7
10.935847 1.7974919 -42.248459 7
11.377739 1.7619654 -42.286667 7
11.689934 1.6273341 -42.249691 7
12.165337 1.6506107 -42.302425 7
10.267694 2.0675828 -42.386253 7
10.656095 2.052376 -42.237186 7
23.119598 4.2567635 -42.070084 8.0775003
0.27678847 -0.92344797 -41.869736 7
9.6160526 -0.35116732 -41.680695 7
9.0359783 0.14924717 -41.735207 7
9.4762974 0.20215505 -41.639679 7
9.6915407 0.33828178 -41.942734 7
10.889441 0.39781469 -41.664444 7
9.2009106 0.42021966 -41.790817 7
10.257343 0.47290447 -41.943031 7
10.61961 0.51806802 -41.923771 7
8.4661913 1.1797295 -41.967609 7
8.9608088 1.1983633 -41.837002 7
8.5769434 1.4731981 -41.9688 7
9.4547968 1.2167844 -41.6833 7
10.260855 1.597317 -41.907207 7
10.515117 1.6198678 -41.871132 7
10.978979 1.6524491 -41.814259 7
11.222571 1.940703 -41.988064 8.1724997
19.994061 7.9244061 -41.653702 11
0.25447273 -2.4785342 -41.343742 7
-0.10152626 -1.4606447 -41.240967 7
0.19828415 -1.2764432 -41.503876 7
9.7649374 -1.2077494 -41.423737 7
0.13725917 -0.98578739 -41.42786 7
9.7647619 -1.030463 -41.461193 7
0.033041 -0.7245872 -41.353516 7
8.709568 -0.44778353 -41.264816 6
9.0772238 -0.51528817 -41.418209 7
9.335309 -0.50264508 -41.5387 7
8.7258453 -0.0030129552 -41.377838 7
9.0365906 -0.11622248 -41.420849 7
9.414217 -0.12001313 -41.443085 7
11.625234 -0.36089349 -41.20306 7
8.6894655 0.13986561 -41.350891 7
8.9310789 0.17974442 -41.471207 7
9.3845072 0.18736695 -41.465157 7
10.330201 0.28342128 -41.520355 7
10.605982 0.32350838 -41.500816 7
20.762867 0.52789152 -41.201965 7
8.9103966 1.4601197 -41.313915 7
20.385788 1.9826967 -41.351814 7
20.555458 1.9824613 -41.35656 7
20.924305 1.9066674 -41.277901 7
20.674829 2.1969414 -41.283669 7.5165496
21.01548 2.3657753 -41.23933 7
20.998144 2.5392795 -41.245083 7
20.762709 2.848772 -41.276325 7
20.378269 3.4536521 -41.377647 8.0754995
20.617643 3.4751809 -41.343693 8.0595999
20.712687 3.9503746 -41.205902 9
20.737833 4.0873733 -41.240829 9
20.805134 4.0850167 -41.247135 9
21.754547 4.1954932 -41.344727 8.0784998
20.564302 4.7420659 -41.326431 9
20.724802 5.8591504 -41.248039 10
20.612707 6.1557665 -41.330547 10.041375
20.282413 6.4309444 -41.485783 10
20.534124 6.4836059 -41.385456 10.020625
20.231031 7.9002042 -41.500847 11
20.632158 7.7655349 -41.291237 11.015045
20.834391 7.7833734 -41.215389 11.055167
20.325956 8.0505161 -41.490669 11
20.495773 8.2222004 -41.407486 11.166
20.38652 9.1672297 -41.448944 12
20.618578 9.0928574 -41.344398 12.164
20.206215 9.4727221 -41.531631 12
20.665596 9.4146051 -41.310181 12.027333
20.624592 9.6728401 -41.279419 12
20.883146 9.7154827 -41.209824 12
0.044234276 -1.3124399 -41.037201 7
11.833558 -1.2661767 -41.116554 7
12.365927 -1.2343383 -41.108143 7
21.828346 -1.2886451 -40.808083 7
9.7694511 -1.1302359 -41.120987 7
18.586912 -1.0428013 -40.961266 7
18.977392 -1.0442355 -41.119865 7
20.672781 -1.0261043 -40.882206 7
8.8754692 -0.49514949 -40.879341 7
9.4267931 -0.53322756 -40.978893 7
10.147141 -0.75479156 -41.016945 7
10.858335 -0.71911687 -41.054642 7
12.180408 -0.40975481 -41.147533 7
13.001554 -0.76001507 -40.853138 7
11.917896 -0.20215148 -41.116661 7
12.046314 -0.33973116 -41.094791 7
8.7183323 0.064197093 -41.138691 7
9.1758385 0.1420659 -41.012794 7
9.2381916 0.023020361 -40.872421 7
21.866604 0.1848952 -40.855194 7
20.782227 0.53921032 -41.173901 7
21.005543 0.56226373 -41.093037 7
21.351755 0.53148019 -41.012207 7
21.725719 0.62253213 -40.93708 7
21.500366 0.90224755 -41.047157 7
8.1552134 1.439047 -41.112522 7
8.7812824 1.5095646 -41.134541 7
20.758654 2.2921324 -41.183174 8
21.000671 2.2953653 -41.081692 8.0274725
21.393053 2.3041842 -40.932888 7.9439163
21.147995 2.4295244 -41.179298 7
21.423267 2.525723 -41.085609 7.1166
21.776711 2.7597227 -40.859978 8.1652498
21.55232 2.8623908 -40.962776 8.1654997
21.681265 2.8251495 -40.912971 8.1657505
20.763229 3.933073 -41.160675 9
20.85895 3.9293096 -41.080605 9.0410004
20.773643 4.0641994 -41.086464 9
20.920372 4.0716357 -41.151981 8.7694998
21.343306 4.0744233 -41.121586 8.0784998
22.213623 4.2378864 -41.082851 8.0775003
22.671501 4.2312756 -41.095768 8.0780001
23.43829 4.2621703 -40.891376 8.0775003
20.727791 5.665103 -41.17754 10
20.923384 5.8171344 -41.111401 10.01375
20.926613 6.0511613 -41.182991 10.1655
20.912437 7.653964 -41.137226 11
20.74227 9.0066967 -41.164715 12.164
20.88319 9.4562445 -41.186211 12
-0.29078865 -1.4085951 -40.735088 7
9.2046509 -1.1481082 -40.633308 7
13.527738 -1.1967543 -40.439999 7
16.659668 -1.0448762 -40.497318 7
17.002903 -1.0445348 -40.58363 7
-0.52513647 -0.76754862 -40.790001 7
8.9023094 -0.52370155 -40.642849 7
9.0260811 -0.22027051 -40.584175 7
9.0056057 0.17056625 -40.646809 7
8.8573322 0.40161234 -40.714027 7
-0.25842142 -1.5434974 -40.133224 7
10.987183 -1.2417024 -40.283924 7
12.393885 -1.2373281 -40.222958 7
12.675454 -1.231697 -40.147491 7
13.805927 -1.1907438 -40.330486 7
14.127437 -1.189274 -40.388687 7
14.426004 -1.1857499 -40.368366 7
15.591968 -1.0423197 -40.088642 7
16.134939 -1.0444378 -40.327877 7
-0.44739914 -1.7794877 -39.771629 7
-1.0381336 -1.4331971 -39.813953 7
-0.27571201 -1.2193136 -39.874222 7
12.355024 -1.2112871 -39.842747 7
12.630135 -1.2055229 -39.762417 7
13.205641 -1.2174433 -39.880714 7
13.651457 -1.2113534 -39.850311 7
13.188479 -1.1948534 -39.630226 7
15.05593 -1.1668637 -39.931721 7
15.46741 -1.1588813 -39.791576 7
16.218676 -1.1503717 -39.737907 7
16.733374 -1.1495115 -39.867958 7
17.007465 -1.1440572 -39.764565 7
18.301094 -1.1341339 -39.809143 7
-0.9050808 -0.68234807 -39.839073 7
8.9164553 -0.54008615 -39.720844 7
8.7841768 0.22939862 -39.739082 7
7.4421625 1.1170893 -39.812511 7
7.7744875 1.4014295 -39.870213 7
20.203125 6.8086696 -39.68552 11.1665
-0.5097909 -1.7053356 -39.445454 7
0.71020317 -1.661194 -39.320358 7
1.1165514 -1.2811162 -39.45319 7
10.764159 -1.3073556 -39.470619 7
11.065004 -1.3033264 -39.479347 7
-0.87710977 -0.97785521 -39.413708 7
13.45218 -1.1881529 -39.511169 7
13.856148 -1.1789821 -39.363026 7
14.129549 -1.173277 -39.278095 7
16.095613 -1.1586089 -39.255199 7
16.443516 -1.1492249 -39.329937 7
18.304174 -1.1279374 -39.26125 7
20.110111 -1.1108397 -39.396275 7
7.9562025 0.19459878 -39.224079 7
8.2774839 0.32805297 -39.21352 7
7.7951546 1.4425979 -39.449097 7
20.802586 4.111187 -39.329613 8.0790005
19.891432 9.9082518 -39.209629 13.1665
-0.71511078 -2.3204386 -38.817684 7
-0.79970837 -1.8780689 -38.831303 7
10.079344 -1.6949008 -38.98336 7
-0.75048256 -1.5766184 -38.916077 7
10.241384 -1.2871706 -38.92712 7
12.319826 -1.2736742 -39.089867 7
12.589833 -1.2663338 -38.97229 7
-1.1791539 -0.91731441 -39.010227 7
14.542345 -1.1646143 -39.146023 7
15.161863 -1.1586239 -39.177803 7
15.355693 -1.162921 -39.130684 7
15.71963 -1.1573117 -39.07534 7
16.522842 -1.1596459 -39.176796 7
16.991524 -1.143247 -39.145386 7
18.231411 -1.1399517 -39.102779 7
19.949135 -1.1182736 -38.931564 7
12.562168 -0.74099636 -38.937889 7
7.8135719 -0.05774197 -38.922783 7
8.2788372 -0.28259641 -39.067829 7
7.9210529 0.10779921 -39.061367 7
8.1042871 0.1861449 -39.090191 7
8.6952286 0.037572622 -39.137508 7
23.168362 0.54651576 -39.192917 7
7.959312 1.3188781 -39.077812 7
8.6373396 1.7200954 -38.947552 7
10.668503 1.6100185 -38.828186 7
21.028118 4.1193562 -38.838772 8.0784998
21.557676 4.1448936 -39.196026 8.0784998
19.647747 4.7077332 -39.081367 9.0764999
9.1338062 -1.6214368 -38.607849 7
9.5122185 -1.6120474 -38.670967 7
9.068778 -1.5964633 -38.569969 7
9.4554214 -1.5872036 -38.6604 7
11.616242 -1.2529114 -38.426483 7
13.239895 -1.2460098 -38.598915 7
-1.2614098 -0.97277236 -38.414227 7
7.8843603 -0.069386221 -38.711609 7
7.5408792 0.039538249 -38.66283 7
7.8933382 0.1601692 -38.782635 7
8.0546618 0.25992787 -38.681152 7
22.345303 0.61256313 -38.743736 7
22.796829 0.52252066 -38.67271 7
9.2501545 1.4105942 -38.607975 8.1695004
8.1678371 1.7928631 -38.500359 7
8.8694773 1.7541628 -38.750145 7
9.5215559 1.9072721 -38.664734 7
10.32089 1.6942965 -38.729027 7
10.530785 1.7205383 -38.793167 7
9.6345215 2.1152716 -38.698898 7
20.483225 4.178472 -38.682457 8.0780001
21.241644 4.1871047 -38.667164 8.0784998
19.033566 10.161484 -38.464226 13.07325
-0.99778175 -1.949694 -38.195831 7
-0.507617 -1.775111 -38.112709 7
-1.0383644 -1.2316813 -38.056133 7
11.887397 -1.2461065 -38.323116 7
14.070248 -1.2271092 -38.342293 7
14.492786 -1.2184029 -38.23761 7
15.030682 -1.2047625 -38.01786 7
9.1193085 -1.1097573 -38.315372 7
10.236216 -1.1575818 -38.023766 7
15.659076 -1.1983026 -38.065605 7
16.924393 -1.1839645 -38.105339 7
18.211782 -1.170294 -38.158951 7
18.591084 -1.1702271 -38.302483 7
7.7670965 -0.15344453 -38.044197 7
7.7004576 0.10349995 -38.090054 7
9.8503685 0.15735659 -38.322948 7
10.037946 0.17675531 -38.221653 7
10.488945 0.1540121 -38.0816 7
8.4953871 1.706163 -38.146545 7
9.1471672 1.8625088 -38.23819 7
9.4818907 1.7976555 -38.159889 7
10.156761 1.7439176 -38.185589 7
10.560216 1.6910344 -38.099815 7
9.6108541 2.0049872 -38.102455 7
8.5123129 4.1814909 -38.066929 8.0714998
9.5286398 4.188292 -38.171223 8.0842495
9.8021765 4.1718016 -38.077858 8.6277504
10.700974 4.1973948 -38.124016 8.0670004
20.51162 4.0584383 -38.327423 8.0784998
20.867432 4.1715841 -38.316593 8.0780001
9.5771284 4.6079521 -38.129181 9.0847502
9.8686075 4.6816936 -38.100941 9.1047497
9.7291956 5.9470901 -38.288361 10.084
9.015934 6.155334 -38.106697 9.3355007
9.3232689 6.1790304 -38.17041 9.5839996
8.7902718 6.4969139 -38.15659 11.082
8.9909067 6.5073609 -38.137295 11.0815
9.3378811 6.5262136 -38.122776 9.5745001
9.8112803 6.4188633 -38.119049 9.0809994
-1.1852608 -2.2293038 -37.612492 7
-0.2865262 -1.8954827 -37.903877 7
-1.1153421 -1.2686415 -37.871552 7
9.8753185 -1.2108259 -37.846649 7
10.13872 -1.2047617 -37.762886 7
13.072961 -1.2131537 -37.75351 7
13.353956 -1.2077199 -37.694149 7
-1.1985188 -1.1659713 -37.794746 7
8.5158825 -0.84906805 -37.679638 7
11.375536 -1.1335061 -37.652634 7
16.092264 -1.1903406 -37.981033 7
19.25246 -1.1360525 -37.650612 7
19.801029 -1.0890585 -37.880047 7
8.2522221 -0.40880245 -37.681564 7
8.537591 -0.56495517 -37.642548 7
7.752862 -0.36529922 -37.872311 7
8.2379742 -0.12812625 -37.659798 7
8.4759417 -0.21074629 -37.657917 7
7.5365882 0.14050032 -37.825542 7
7.8084021 0.072452068 -37.750923 7
8.2318974 0.13594201 -37.691643 7
8.4755888 0.12155887 -37.663166 7
10.675283 0.21620888 -37.890087 7
8.4597788 0.46023741 -37.714668 7
7.171876 1.0850486 -37.68362 7
8.1297703 1.4581673 -37.782261 7
8.5855637 1.4885713 -37.806454 7
9.0485973 1.5244499 -37.742298 7
9.3213902 1.5142446 -37.762939 7
9.7250223 1.591151 -37.735901 7
10.288311 1.5568612 -37.752876 7
10.569653 1.5017467 -37.673214 7
8.4614944 1.7134279 -37.939922 7
9.010334 1.8301187 -37.889572 7
9.4007368 1.7583674 -37.741459 7
9.6814108 1.7676221 -37.707943 7.1951661
10.47077 1.658534 -37.781483 7
63.188477 1.9325504 -37.670593 7
22.503935 2.1345179 -37.670879 7
9.8964634 3.9122527 -37.922554 9.1689997
19.458569 3.7303247 -37.63047 9.165
9.8015814 4.155798 -37.832092 8.8088884
10.187469 4.2362704 -37.849049 9.1689997
10.445108 4.1246309 -37.859119 8.0830002
20.552856 4.11587 -37.860748 8.0782499
21.587862 4.1715741 -37.69141 8.0775003
9.8555136 4.5688396 -37.886978 8.8757496
10.115659 4.7381978 -37.858105 9.1719999
10.42383 4.4366088 -37.809608 8.0764999
8.6564283 4.8789573 -37.616909 9.1645002
9.4322805 5.1019287 -37.689037 9.6542864
9.7232924 5.082459 -37.828873 9.0844994
9.5237246 5.4207239 -37.804176 8.5860004
9.7401028 5.4442277 -37.665234 9.9181004
9.4746399 5.9527512 -37.959415 10.0845
9.6257763 5.8199515 -37.918999 9.0865002
8.2461433 6.1920462 -37.653034 9.085
8.4020538 6.1250291 -37.672878 9.085
9.506814 6.2656832 -37.917549 10.085
8.2516108 6.4663124 -37.955883 9.0649996
-1.3714371 -2.3227568 -37.59412 7
-0.9361515 -2.259532 -37.342239 7
-1.3237467 -1.2483959 -37.516876 7
11.271146 -1.4559909 -37.438374 7
11.844128 -1.4369807 -37.206261 7
13.613428 -1.2003671 -37.561092 7
8.8530006 -0.99128276 -37.469204 6
9.4922962 -0.96521622 -37.314278 6
11.433884 -1.1731516 -37.276207 7
11.629299 -1.1281722 -37.568138 7
12.304255 -1.1109211 -37.235298 7
13.877521 -1.1935164 -37.445621 7
14.286189 -1.1836258 -37.288548 7
14.567838 -1.1783736 -37.230927 7
17.818155 -1.1408454 -37.270306 7
19.68874 -1.1323167 -37.457893 7
9.555212 -0.72276664 -37.452911 7
10.121161 -0.69685364 -37.494514 7
7.5392098 -0.12119588 -37.50264 7
7.505146 0.16209523 -37.483196 7
8.2572746 0.26050839 -37.561592 7
8.4606686 0.27993384 -37.596039 7
10.554447 0.37544003 -37.472485 7
9.739502 0.50313133 -37.478172 7
7.8200369 1.544559 -37.490276 7
8.2721281 1.568819 -37.595898 7
9.6922512 1.5541772 -37.551174 7
10.379898 1.4640834 -37.398151 7
9.0697145 1.6638643 -37.515373 7
9.4366198 1.7339021 -37.353008 7.3910003
63.760902 1.976624 -37.388985 7
10.226095 2.2392006 -37.29364 8.1687498
9.7545004 3.4437451 -37.296661 7.5425
10.186028 3.5644069 -37.229805 8.0844994
19.581352 3.5844171 -37.369911 9.1634998
9.197751 3.9240346 -37.341019 8.0845003
9.4479876 3.8518262 -37.397499 8.0657501
9.884285 3.862901 -37.363968 8.3568754
10.224934 3.9349861 -37.381199 8.3451872
10.528872 3.6769803 -37.213783 9.1689997
19.464224 3.640903 -37.458496 9.1634998
8.2716331 4.3307905 -37.227692 8.0769997
8.9222527 4.0516367 -37.256466 8.0847492
9.2750435 4.0681167 -37.31678 8.0844994
9.8854361 4.2275805 -37.402008 8.7310009
10.185905 4.2461753 -37.426971 8.7503328
10.507519 4.0614367 -37.401642 8.0640001
20.141607 4.1199217 -37.266113 8.0780001
8.5831566 4.4611502 -37.536301 9.1660004
9.170414 4.4485397 -37.553028 9.085
9.364666 4.5627918 -37.259048 8.6184998
9.7961407 4.5949388 -37.336281 9.1701002
10.126075 4.5869117 -37.443344 8.9703636
19.160721 4.5011258 -37.394085 9.0760002
9.4623899 5.0384483 -37.4622 9.0852499
9.7558308 5.1194139 -37.562283 9.3599997
62.40329 5.0213757 -37.232666 8.1370001
9.4591846 5.3635368 -37.48455 9.4180002
9.7591858 5.2925553 -37.474384 9.4456663
9.3799543 5.6758089 -37.527718 10.084
9.0248518 6.1046262 -37.203934 9.085
8.3479595 6.428772 -37.40836 9.0640001
-0.93774033 -2.0951457 -37.141529 7
-1.4128895 -1.6220248 -36.866982 7
-1.1490192 -1.6460021 -36.806999 7
-0.54136634 -1.8056471 -36.926338 7
-1.4091301 -1.3605368 -37.00724 7
0.19957209 -1.2856858 -36.982956 7
-2.0266542 -0.98771578 -36.856415 7
-1.5744519 -1.0337818 -36.823143 7
8.589139 -0.98278719 -36.966503 6
9.8036823 -0.95071298 -37.179302 6
10.008697 -0.94082612 -37.077728 6
12.753629 -1.1024606 -37.111465 7
13.022884 -1.0987263 -37.080482 7
