# .PCD v0.7 - Point Cloud Data file format
VERSION 0.7
FIELDS x y z intensity
SIZE 4 4 4 4
TYPE F F F F
COUNT 1 1 1 1
WIDTH 1412
HEIGHT 1
VIEWPOINT 0 0 0 1 0 0 0
POINTS 1412
DATA ascii
-114.39297 2.9313195 29.588291 7
-117.69666 3.0894701 29.561125 7
-116.5172 3.020067 29.584127 7
-115.42555 3.0645247 29.563538 7.2142859
-115.10761 3.0373552 29.585562 7
8.0038071 -0.74112111 29.631762 7
-51.988743 0.69685984 29.610531 7
-50.352402 0.65613753 29.639875 7
-59.406433 0.77767563 29.664362 6.6666665
-57.935699 0.78871512 29.654325 7
-57.459831 0.78700501 29.66169 7
-56.950588 0.7818014 29.612005 7
-56.427357 0.77057594 29.679585 7
-55.906197 0.76958781 29.637255 7
-54.957939 0.71367955 29.685452 7
-52.973743 0.70094025 29.636692 7
-52.495853 0.70154607 29.623238 7
-50.238686 0.78915113 29.661098 7
-64.20665 0.88294905 29.604069 6.6666665
-61.410748 0.85099274 29.642162 7
-60.339573 0.84949052 29.689627 7
-59.864601 0.83598053 29.685993 7
-59.356133 0.8129074 29.647749 7
-58.910397 0.81162626 29.640966 7
-58.422333 0.82527739 29.683117 7
-53.415592 0.84028786 29.691517 7
-66.669708 0.97181976 29.616055 7
-65.227684 0.94558239 29.673769 7
-64.230782 0.92126942 29.612362 7
-61.71991 0.99515522 29.676207 7
-61.255901 0.95937067 29.639029 7
-68.048958 1.0256963 29.655859 7
-67.585472 1.0069854 29.638695 7
-66.619064 1.0743929 29.665285 7
-65.067451 1.0478554 29.686806 7
-64.732224 1.0480645 29.63364 7
-74.004181 1.1851665 29.638762 7
-69.736671 1.1589444 29.632019 7
-74.222435 1.293278 29.656418 7
-73.863144 1.2855649 29.653692 7
-80.309326 1.325771 29.680105 7
-79.490906 1.3191795 29.699057 7
-79.032951 1.3094177 29.627615 7
-78.852402 1.3967408 29.641876 7
-78.429504 1.3983972 29.655491 7
-78.12516 1.3915005 29.655649 7
-77.539169 1.3623006 29.656075 7
-77.153374 1.3376431 29.613285 7
-76.850166 1.3312064 29.640009 7
-75.802429 1.3247479 29.607042 7
-75.785721 1.3600549 29.611895 7.3333335
-75.302307 1.3372449 29.639868 7.3333335
-75.26622 1.3014921 29.652729 7
-75.137741 1.3556808 29.639885 7.5
-74.858673 1.3007294 29.636728 7
-74.693459 1.3005704 29.630976 7
-74.411079 1.3151456 29.615086 7.1999998
-81.98217 1.4978662 29.649057 7
-81.535385 1.4932814 29.619709 7
-81.039185 1.4807534 29.655668 7
-80.582909 1.4706825 29.657076 7.1666665
-79.807167 1.4432889 29.656643 7
-79.259247 1.4306146 29.643578 7
-78.912354 1.4235826 29.674913 7
-84.698814 1.5828718 29.690744 7
-84.200974 1.5746276 29.655256 7
-83.741211 1.5633832 29.682579 7
-83.298691 1.5375578 29.657629 7
-82.851807 1.5383488 29.690208 7
-93.121536 1.76307 29.618362 7
-93.025345 1.7804182 29.600641 7
-92.925476 1.7751611 29.605906 7
-92.765594 1.7627134 29.604418 7
-101.86536 2.2088301 29.60078 7
-113.30848 2.8585818 29.627354 7
-117.41111 2.9766045 29.647984 7
-117.19662 2.9630184 29.64031 7
-115.40411 2.9744263 29.647827 7
-114.48892 2.935292 29.605753 7
-114.11454 2.9316444 29.685997 7
-113.50784 2.9069428 29.617517 7.5
-117.11669 3.048389 29.687218 7
-115.4616 3.0478129 29.62801 7
-115.15709 3.03863 29.680468 7
-117.33353 3.1086516 29.661158 7.5999999
-138.02687 3.4989929 29.675158 7
-58.341938 0.79724014 29.795296 6.75
-57.924095 0.79117095 29.720694 7
-57.400967 0.78657603 29.710922 7
-57.287521 0.78414005 29.767984 7
-56.425369 0.77463299 29.778374 7
-62.356289 0.88856971 29.737415 7
-61.859039 0.89020151 29.748514 7
-60.845791 0.85749733 29.73111 7
-60.356911 0.85388517 29.768282 7
-58.918873 0.81678855 29.750643 7
-58.418468 0.82603979 29.703922 7
-58.356594 0.82636982 29.769594 7
-56.290668 0.89257169 29.793602 7
-55.329475 0.85089016 29.719971 7
-53.87738 0.8140595 29.725212 7
-52.36636 0.83136296 29.791897 7
-67.128235 0.99953461 29.704529 7
-64.76783 0.94816947 29.721638 7
-62.735382 0.99881965 29.759512 7
-62.174015 0.99396461 29.754616 7
-61.661282 0.99664545 29.735415 7
-56.786713 0.90203643 29.726927 7
-70.704315 1.0935979 29.708002 7
-68.949104 1.0531038 29.778788 7
-68.507393 1.0398 29.748367 7
-66.105042 1.0761127 29.735348 7
-65.625412 1.0959673 29.760441 7.4444447
-74.441101 1.1950028 29.70686 7
-74.273346 1.1889133 29.736986 7
-71.585434 1.1246535 29.733675 7
-68.460648 1.1369474 29.741571 7
-67.036034 1.1471179 29.743382 7.4705882
-78.628761 1.28238 29.724705 7
-78.055023 1.2810668 29.769957 7
-77.685493 1.2613279 29.711014 7
-77.304626 1.2504287 29.701466 7
-77.250015 1.2507758 29.758053 7
-76.919273 1.2297815 29.718996 7
-76.228149 1.2230529 29.736807 6.8000002
-75.82122 1.2261535 29.723282 7
-75.749435 1.2238429 29.74135 7
-75.62606 1.2200526 29.777237 7
-71.600967 1.2745918 29.784384 7.5
-81.296104 1.373404 29.787357 7
-80.236893 1.3257211 29.746685 7
-79.905663 1.3299675 29.710342 7
-79.76416 1.325174 29.746544 7
-79.387131 1.3156959 29.726101 7
-78.522568 1.3907257 29.70577 7
-78.4515 1.3906536 29.76687 7
-78.063087 1.3922141 29.740484 7
-77.158035 1.3749933 29.779198 7.166667
-76.74617 1.3317018 29.759565 7
-76.476929 1.3522085 29.707731 7
-76.047485 1.3386741 29.745056 7
-75.563316 1.3091346 29.702002 7
-75.219528 1.3022751 29.730471 7
-74.7342 1.301477 29.780867 7
-83.954216 1.4435265 29.769733 7
-82.588165 1.4103752 29.776928 7
-82.139114 1.4089631 29.796017 7
-81.943115 1.4988978 29.734978 7
-81.651772 1.4925507 29.763508 7
-81.501366 1.4943333 29.701721 7
-81.021126 1.4824651 29.743872 7
-80.560196 1.4529341 29.7209 7
-79.338753 1.4610593 29.732292 7.25
-78.862602 1.4234868 29.71549 7
-84.651947 1.5839586 29.792587 7
-84.179207 1.5758327 29.732506 7
-83.272575 1.5399272 29.787043 7
-82.826523 1.5395596 29.772791 7
-82.408974 1.5353328 29.733362 7
-114.54443 2.7821255 29.771391 7
-113.44734 2.7721941 29.743546 7
-112.85406 2.8242693 29.703655 7
-117.61357 2.9869921 29.796654 7
-117.52772 2.9670401 29.726616 6.818182
-115.94846 2.9192915 29.754379 7
-115.1271 2.9492867 29.712023 7
-115.84705 3.0282826 29.719847 7.25
-114.90933 3.0130658 29.760929 7
-58.841434 0.79413581 29.847387 6.8000002
-57.31324 0.78958064 29.872141 7
-56.868019 0.7864629 29.808464 7
-52.428574 0.70665324 29.827135 7
-62.252838 0.89014411 29.877615 7
-61.743229 0.88978952 29.852638 7
-61.2887 0.85350329 29.819237 7
-60.326149 0.85704023 29.867147 7
-59.379585 0.82078743 29.804436 7
-59.282928 0.80048347 29.889427 6.8333335
-53.373154 0.84543025 29.839439 7
-52.325558 0.8328827 29.838224 7
-66.969391 0.95449752 29.850754 6.5714288
-66.45433 0.97326005 29.863571 7
-66.123077 0.98035443 29.866135 7
-59.691975 0.95666301 29.891665 7
-58.24445 0.94514531 29.819841 7
-57.259232 0.90898752 29.850365 7
-70.28746 1.0748429 29.852377 6.875
-69.387398 1.0566626 29.829876 7
-66.06559 1.0775616 29.802816 7
-63.157547 1.0337905 29.827047 7
-62.661362 1.0010054 29.847195 7
-71.105148 1.1095414 29.812216 7
-70.71817 1.1016135 29.873848 7
-69.793091 1.1642423 29.821627 7
-69.313103 1.1871301 29.870234 7.3333335
-68.890854 1.1517837 29.851191 7
-68.447968 1.1384284 29.809013 7
-67.479172 1.1123949 29.858786 7
-66.91803 1.1012261 29.886341 7
-72.981331 1.2525607 29.834475 7
-70.233437 1.228987 29.821291 7.5
-82.565903 1.3716573 29.840502 6.6666665
-81.194557 1.3718114 29.852514 7
-83.483757 1.4349114 29.822174 7
-81.561058 1.4930922 29.873024 7
-80.66803 1.4755803 29.807709 7
-84.370529 1.5770975 29.835594 7
-84.159355 1.5778004 29.83894 7
-83.720207 1.566551 29.837334 7
-86.46405 1.6750395 29.894083 7
-86.069885 1.6492047 29.866198 7
-85.544426 1.6347791 29.837133 7
-85.099464 1.6258718 29.800905 7
-114.50065 2.7783785 29.821199 7
-114.2868 2.7642634 29.887011 7
-116.35405 2.8454232 29.838919 6.6875
-117.101 2.9432318 29.856058 6.75
-116.96764 2.9547205 29.881317 7
-116.01148 2.9235034 29.815201 7
-115.21149 2.9499745 29.891153 7
-114.90099 2.9233391 29.810568 7
-114.20111 2.9361188 29.878204 7
-115.24666 3.0621698 29.839407 7.25
-114.94825 3.013943 29.829796 7
-114.66978 3.0275877 29.889709 7.25
8.0648708 -0.73681957 29.994186 7
-57.843388 0.79632813 29.916231 7
-63.672623 0.85512382 29.99098 6.4166665
-63.19928 0.89065319 29.966373 6.5999999
-62.74015 0.87782168 29.930895 6.8125
-62.258385 0.89280784 29.934076 7
-61.754395 0.89491332 29.960045 7
-61.26841 0.85742921 29.930929 7
-60.816479 0.86375207 29.904228 7
-59.75544 0.8448348 29.998608 7
-58.795528 0.82076025 29.968119 7
-63.709122 0.91826081 29.964928 7
-61.15538 0.97091454 29.994659 7
-60.697704 0.97673172 29.956293 7
-60.22147 0.9708842 29.912973 7
-59.24218 0.9623937 29.92238 7.1999998
-58.680164 0.93775153 29.978136 7
-70.250015 1.0378588 29.98262 6.4375
-69.188545 1.0547433 29.991472 7
-68.383415 1.0443231 29.976437 7
-67.790329 1.0267645 29.948437 7
-67.508865 1.0152624 29.903889 7
-66.977348 1.0034721 29.944893 7
-64.586685 1.0573182 29.990246 7
-64.137039 1.0372407 29.932552 7
-64.072395 1.0385475 29.993437 7
-63.112015 1.0362649 29.917562 7
-71.653458 1.1375 29.954288 7
-71.162148 1.1181316 29.948792 7
-68.810799 1.1535738 29.971107 7
-68.338226 1.1739315 29.966805 7.3333335
-67.820679 1.1290725 29.906277 7
-71.126411 1.2121847 29.984682 7
-73.003319 1.3038461 29.964783 7.5
-72.561897 1.3021448 29.94113 7.5
-84.874931 1.4980834 29.948484 7
-84.386948 1.4561925 29.96513 7
-83.447845 1.4388846 29.935219 7
-83.037018 1.4159172 29.92234 7
-82.911827 1.4110694 29.951153 7
-82.881851 1.409623 29.952539 7
-82.503174 1.4130497 29.915237 7
-82.113174 1.4135615 29.913877 7
-82.011635 1.4103584 29.9492 7
-86.224861 1.5407376 29.950573 7
-85.78241 1.5150182 29.939869 7
-84.275307 1.5779146 29.972647 7
-83.751083 1.5686483 29.922401 7
-86.012154 1.6489304 29.925121 7
-85.514397 1.6375489 29.987192 7
-85.081703 1.6283954 29.921326 7
-84.754425 1.6195529 29.928675 7
-115.56991 2.8423915 29.960791 6.5
-117.23541 2.9723365 29.923336 7
-115.64607 2.9865232 29.993385 7
-115.50134 2.9815185 29.970913 7
-115.18922 2.9487545 29.905365 7
-114.55737 2.9093127 29.957407 7
-115.04977 3.0374122 29.994419 7.25
-117.0938 3.1026566 29.908445 7.6363635
-137.91653 3.4950941 29.957451 7
-62.740833 0.86183351 30.075996 6.5999999
-62.232658 0.89574581 30.030005 7
-61.704315 0.85164183 30.026428 6.6153846
-61.693798 0.89664066 30.061909 7
-59.298244 0.82591927 30.006107 7
-65.128326 0.95864797 30.061153 7
-64.228027 0.93879962 30.01046 7
-63.690277 0.92083186 30.049232 7
-63.201664 0.93570083 30.022135 7
-62.749344 0.9039973 30.061594 7
-61.154793 0.97206604 30.026693 7
-60.632515 0.9803105 30.070244 7
-60.17749 0.97487462 30.025234 7
-59.649853 0.96061951 30.006607 7
-68.823807 1.0577494 30.016798 7
-65.491539 1.0583059 30.093456 7
-65.064873 1.0761249 30.020782 7.166667
-64.973503 1.0591764 30.072306 7
-73.496124 1.1436211 30.058475 6.6666665
-73.054588 1.1673038 30.073736 7
-72.130836 1.157366 30.067194 7
-70.674934 1.106585 30.030148 7
-70.141365 1.1850505 30.077528 7
-69.671906 1.1685727 30.081606 7
-69.165276 1.1554118 30.023382 7
-71.580399 1.2323767 30.083965 7
-71.126198 1.2126796 30.005924 7
-84.268578 1.4522486 30.007658 7
-87.086441 1.5783393 30.025082 7
-86.658058 1.556921 30.004612 7
-88.445816 1.6232347 30.096489 7
-86.883606 1.6920903 30.009722 7
-86.563705 1.6836635 30.049887 7
-85.985886 1.6518348 30.077436 7
-85.649826 1.6420547 30.062634 7
-85.114525 1.6286381 30.074821 7
-84.709175 1.6205913 30.014931 7
-88.671631 1.7601948 30.057606 7
-87.741112 1.7152491 30.078196 7
-87.062187 1.7083731 30.093143 7
-116.83652 2.86432 30.097551 6.4615383
-117.27436 2.9734893 30.006144 7
-116.76622 2.9045975 30.06041 7
-115.74779 2.9012203 30.029747 7
-115.04404 2.9460154 30.079285 7
-114.71297 2.9179304 30.060949 7
-116.68357 3.0134006 30.092121 7.3333335
-114.95697 3.0381358 30.041542 7
-114.75135 3.0449567 30.076578 7.4444447
8.0925007 -0.73525244 30.140926 7
-61.309685 0.86738932 30.124464 7
-61.267242 0.86612928 30.13846 7
-66.060059 0.99059093 30.163759 7
-65.504936 0.95960236 30.195665 7
-65.036728 0.95779938 30.135796 7
-64.170013 0.94098127 30.120676 7
-63.158173 0.94080949 30.190331 7
-62.715504 0.90515411 30.123949 7
-62.574677 0.90204561 30.197819 7
-61.102394 0.97561628 30.136925 7
-70.455551 1.0590007 30.170654 6.5555553
-69.723747 1.0245366 30.129314 6.4444447
-65.954353 1.0873071 30.167048 7
-65.469398 1.077547 30.167606 7.1666665
-64.590096 1.0635895 30.180958 7
-62.605331 1.0116256 30.168461 7
-62.087685 1.0071723 30.162125 7
-61.611633 1.011952 30.175259 7
-61.534554 1.0116574 30.185816 7
-73.494888 1.1784476 30.126509 7
-72.575569 1.1672907 30.106661 7
-72.117943 1.1601113 30.1409 7
-70.461578 1.1023059 30.153225 7
-65.974228 1.120688 30.159765 7.3333335
-78.411888 1.2920032 30.125731 7
-73.877808 1.2975754 30.139517 7
-72.045189 1.2952853 30.108389 7.5
-71.519363 1.2328379 30.144983 7
-71.038673 1.2152112 30.168631 7
-78.380486 1.3989471 30.155037 7
-81.875465 1.4135081 30.15163 7
-80.967232 1.4928091 30.161928 7
-80.551842 1.4816771 30.140865 7
-79.706924 1.4545165 30.187855 7
-86.904984 1.5760098 30.176626 7
-86.217644 1.5485187 30.113291 7
-86.074814 1.5101466 30.144342 6.75
-81.871033 1.5332074 30.196892 7
-89.300468 1.6502094 30.156509 7
-89.291176 1.6508887 30.182034 7
-88.879929 1.6276811 30.119461 7
-87.990234 1.6009967 30.110722 7
-86.518959 1.6841356 30.122536 7
-86.088249 1.6694295 30.10434 7
-85.579536 1.6424853 30.156168 7
-89.500862 1.7892488 30.13809 7
-89.133347 1.7672296 30.111437 7
-89.042007 1.7656348 30.168169 7
-88.621101 1.7611637 30.165745 7
-87.724747 1.7153246 30.102343 7
-87.484985 1.7088976 30.147596 7
-87.378784 1.7067175 30.190929 7
-87.280487 1.7158051 30.129263 7
-112.68952 2.6827209 30.114323 7
-114.24594 2.7756178 30.108023 6.8000002
-114.06548 2.7358608 30.151073 7
-113.94375 2.7722185 30.148474 7
-115.81122 2.8450654 30.158659 6.3333335
-114.21772 2.8921571 30.158922 7
-117.38553 2.978703 30.128746 7
-116.62897 2.9814367 30.10018 7
-115.97198 2.9187908 30.110014 7
-114.23057 2.9428074 30.150602 7
-114.19513 2.9838715 30.155819 7
-117.33719 3.0620115 30.12248 7
-115.79038 3.0384684 30.149773 7.5
-114.75013 3.0067346 30.104328 7
-63.592411 0.86545295 30.26672 6.4444447
-65.939827 0.98768288 30.224646 7
-65.541313 0.96459198 30.273638 7
-65.102348 0.96370101 30.204098 7
-65.098961 0.96622688 30.265955 7
-64.147293 0.94668263 30.279583 7
-63.631855 0.92543995 30.231369 7
-62.62059 0.90524352 30.225935 7
-62.168118 0.90082747 30.220444 7
-66.466354 1.0895303 30.248497 7
-63.508537 1.0304668 30.285801 7
-63.047684 1.0465322 30.237936 7
-62.545761 1.0141788 30.255772 7
-73.443413 1.1254623 30.280087 6.3714285
-72.505302 1.1319256 30.208349 6.5999999
-71.468674 1.1413436 30.230345 7
-71.014198 1.1032162 30.277334 6.75
-77.045074 1.2654412 30.255733 7
-75.975212 1.2592418 30.295677 7
-75.522682 1.236119 30.205873 7
-74.740379 1.2214878 30.27916 7
-74.330414 1.2158055 30.254541 7
-72.834488 1.2604748 30.273043 7
-72.462685 1.2611605 30.285555 7
-71.98687 1.2499933 30.205492 7
-77.047981 1.3656234 30.215157 7
-75.569984 1.3366604 30.267962 7
-72.913704 1.3112882 30.24221 7.5454545
-72.435638 1.3065363 30.286861 7.5
-83.245293 1.4065354 30.282492 6.6666665
-80.094116 1.4558208 30.253954 7
-78.786476 1.4364718 30.290052 7
-77.963409 1.4040769 30.284378 7
-84.007874 1.5771506 30.217306 7
-83.205437 1.5641024 30.264883 7
-88.676369 1.6241529 30.282564 7
-87.962463 1.6071831 30.264198 7
-87.858971 1.6028935 30.293177 7
-90.234344 1.7049563 30.224106 7
-89.480713 1.7911944 30.252962 7
-88.726151 1.7578306 30.254349 7
-88.301407 1.7531776 30.231256 7
-88.298004 1.7535861 30.251816 7
-89.692398 1.8435392 30.274199 7
-107.80726 2.605361 30.247843 7
-112.62772 2.7922978 30.259764 7
-115.82383 2.8602238 30.242603 6.5
-114.21481 2.8921924 30.234819 7
-115.85972 2.9081507 30.238625 7
-115.38963 2.9603372 30.213385 7
-114.78371 2.9183538 30.271418 7
-114.57971 2.9103107 30.23984 7
-114.25844 2.9846439 30.265717 7
-113.93958 2.9330053 30.225843 7
-115.41366 3.0534871 30.24221 7
-130.38855 3.2856014 30.275497 7
-137.72232 3.4887607 30.268887 7
-66.51815 0.99898779 30.389978 7
-66.497688 0.99560821 30.332479 7
-66.04184 0.99712074 30.336245 7
-65.570404 0.96752965 30.311026 7
-65.075218 0.9558692 30.349648 6.875
-64.580238 0.94592208 30.351782 6.8000002
-64.137329 0.92834103 30.348263 6.8000002
-63.164364 0.94677442 30.328247 7
-67.471664 1.0339119 30.389126 7
-63.484489 1.0324709 30.35458 7
-63.01762 1.0492694 30.324408 7
-62.976727 1.0508794 30.381969 7
-72.871605 1.169662 30.306002 7
-67.401382 1.1245059 30.337629 7
-75.139 1.2210628 30.320427 7
-74.735092 1.2263041 30.388895 7
-73.297661 1.2732714 30.364685 7
-80.590645 1.3790531 30.353989 7
-80.146362 1.3509589 30.341997 7
-79.699188 1.3536336 30.39184 7
-79.275017 1.3387327 30.314533 7
-78.826889 1.3366108 30.38213 7
-78.418922 1.3026038 30.340183 7
-77.514305 1.3836482 30.323793 7
-83.235939 1.4498863 30.370447 7
-82.356842 1.4276298 30.366966 7
-81.897339 1.4222364 30.310501 7
-78.368149 1.4045286 30.376715 7
-84.944328 1.5056595 30.368317 7
-84.582512 1.5055503 30.396128 7
-81.404312 1.5029844 30.399151 7
-89.20845 1.6534196 30.33835 7
-88.232178 1.6240481 30.355003 7
-84.513916 1.6236998 30.320473 7
-91.616425 1.7661726 30.383314 7
-91.106468 1.7374544 30.376307 7
-90.675232 1.7411727 30.357725 7
-89.707306 1.7176149 30.394159 7
-88.649963 1.7571855 30.323463 7
-88.241325 1.7534685 30.315063 7
-90.098816 1.8354025 30.361012 7
-89.104309 1.824818 30.382854 7.3333335
-107.82003 2.4756947 30.37631 7
-107.79884 2.4856493 30.390135 7
-107.90558 2.5635326 30.392427 7
-107.78621 2.5017967 30.384768 7
-107.82703 2.6210685 30.358305 7
-107.77351 2.6225986 30.388672 7.0449996
-112.60661 2.7920306 30.338896 7
-113.56696 2.8152738 30.395006 7
-117.11066 2.9276471 30.328667 7
-116.529 2.9559 30.350136 7
-115.07412 2.9476066 30.3494 7
-114.52151 2.9069161 30.322248 7
-113.92182 2.924819 30.32152 7
-113.87182 2.9226291 30.347317 7
-116.98375 3.0037498 30.30302 7
-116.43 3.0371275 30.366224 7
-115.54811 3.0583999 30.374105 7
-115.13133 3.0439837 30.378857 7
-114.47581 3.0333545 30.353966 7.3333335
-130.32289 3.2833123 30.327038 7
-137.66318 3.4867661 30.374783 7
-66.971848 0.99899513 30.407297 6.75
-64.513939 0.9250679 30.436342 6.5999999
-67.85891 1.0513749 30.472776 7
-67.463051 1.0377253 30.493746 7
-66.956802 1.0237504 30.444849 7
-66.537712 1.0031525 30.467882 7
-64.944687 1.0723304 30.464325 7
-64.466881 1.0722728 30.477667 7
-64.020706 1.0522573 30.409199 7
-63.949902 1.0533553 30.460178 7
-75.13279 1.1780989 30.488771 6.4499998
-68.825958 1.1665478 30.476486 7
-68.276993 1.1534177 30.4585 7
-67.860016 1.1435871 30.423826 7
-77.127266 1.254433 30.442387 6.75
-76.726059 1.2565465 30.465874 7
-76.055061 1.2704829 30.458858 7
-75.569954 1.2521703 30.498852 7
-73.792267 1.2124121 30.420916 7
-81.444405 1.3923109 30.405588 7
-81.03878 1.3919089 30.415693 7
-78.402763 1.3072587 30.455227 7
-75.076851 1.3641926 30.478281 7.5
-74.647758 1.3588225 30.436287 7.4615383
-74.129822 1.3090478 30.458975 7
-73.708405 1.3026308 30.45665 7
-83.219719 1.4551176 30.494684 7
-81.885284 1.4269098 30.42123 7
-78.356789 1.4065466 30.460192 7
-82.744041 1.5430695 30.450205 7
-81.402145 1.5039409 30.437008 7
-80.974915 1.5007962 30.453892 7
-85.424072 1.6470594 30.491089 7
-84.960068 1.6331034 30.4016 7
-91.487244 1.7598941 30.405472 7
-90.05294 1.7047276 30.448908 7
-89.689964 1.7170074 30.402332 7
-89.53862 1.7092574 30.421211 7
-93.266815 1.8341308 30.499863 7
-91.951057 1.8035306 30.4676 7
-91.036827 1.8666916 30.432871 7
-90.96756 1.8664268 30.499166 7
-92.57608 1.9258165 30.479027 7
-92.141624 1.937739 30.467155 7
-107.83747 2.4728029 30.434544 6.9629631
-107.75974 2.463104 30.450758 6.8777781
-107.84715 2.5091774 30.438517 7
-107.75536 2.5347939 30.416775 7
-112.64867 2.6875544 30.476303 7
-107.9053 2.6497302 30.470505 7
-107.85459 2.6366365 30.431347 7
-107.72872 2.6563053 30.420416 7.2111115
-107.68869 2.6241221 30.420078 7
-107.8844 2.7875946 30.440283 7
-107.78742 2.7600932 30.428902 6.75
-113.71029 2.8174846 30.459223 7
-113.54796 2.8144104 30.439701 7
-116.70325 2.9670236 30.432678 7
-116.66671 2.9646063 30.425322 7
-114.83749 2.921046 30.492384 7
-113.92437 2.9529183 30.483414 7.3333335
-113.58249 2.9159968 30.492775 7
-107.83556 2.9145486 30.415632 7.3333335
-116.55142 3.0438523 30.46266 7
-137.61246 3.484972 30.484467 7
-65.544647 0.97447139 30.508623 7
-65.051704 0.97441709 30.511087 7
-64.991524 0.97282594 30.538849 7
-68.914116 1.0830413 30.550444 7
-68.354652 1.0656211 30.525335 7
-67.510422 1.0005864 30.537226 6.5454545
-67.498825 1.0429046 30.583612 7
-66.997971 1.0294255 30.537239 7
-66.506859 1.0050774 30.549761 7
-66.422409 1.0031301 30.599716 7
-65.876274 1.0985916 30.53895 7
-65.400833 1.0712941 30.524282 7
-64.421631 1.0728899 30.510015 7
-74.542458 1.1718351 30.542561 6.4499998
-69.248329 1.1707933 30.569319 7
-68.85302 1.1675993 30.50416 7
-68.726501 1.1673439 30.548056 7
-78.791794 1.296911 30.507584 6.5714288
-74.469955 1.2222534 30.582848 7
-74.103928 1.2162323 30.500711 7
-80.885849 1.3686142 30.553534 6.8000002
-80.506081 1.3849542 30.561794 7
-80.049294 1.3278105 30.599577 6.7142859
-77.941284 1.3142433 30.566942 7
-79.526047 1.4606371 30.55205 7
-78.260422 1.4071873 30.55228 7
-77.851746 1.4101137 30.583485 7
-75.982552 1.4084954 30.534353 7.5
-85.990135 1.5164466 30.523996 6.6666665
-84.560181 1.5126605 30.56402 7
-84.08017 1.5882559 30.561621 7
-83.64917 1.5814011 30.515234 7
-82.704567 1.5456223 30.578367 7
-82.20945 1.544456 30.587217 7
-81.738007 1.5390221 30.535942 7
-80.846977 1.5014713 30.580112 7
-90.953247 1.6952686 30.582899 6.6666665
-86.235832 1.6875684 30.56954 7
-85.92308 1.6761059 30.538151 7
-85.84729 1.6736668 30.521664 7
-84.5093 1.6312193 30.592972 7
-84.072189 1.6173794 30.531569 7.25
-92.336731 1.7906654 30.522352 7
-91.483009 1.7681391 30.589882 7
-90.98806 1.7411063 30.586699 7
-90.612671 1.7445809 30.507843 7
-90.524971 1.7426327 30.57258 7
-94.202103 1.8887351 30.528936 7
-94.090904 1.8846743 30.582874 7
-93.196594 1.8342439 30.592133 7
-92.766426 1.8130736 30.594414 7
-91.383301 1.8895829 30.52656 7
-90.954201 1.866745 30.52668 7
-93.004532 1.945556 30.502745 7
-107.75562 2.4904833 30.55048 7
-107.77574 2.5209839 30.51951 7
-113.67831 2.8627603 30.537899 7
-113.45919 2.8127444 30.597506 7
-113.30521 2.8511825 30.575464 7
-115.63674 2.9735014 30.576845 7
-114.0515 2.9817138 30.527374 7
-113.96246 2.984761 30.580803 7.6923075
-113.56561 2.9148653 30.528713 7
-116.19624 3.0139375 30.562454 7
-115.58888 3.0615971 30.528994 7
-114.86607 3.0576112 30.53689 7.4285712
-66.396439 0.97149938 30.667725 6.6666665
-69.653961 1.0958502 30.674831 7
-69.58252 1.0922433 30.668325 7
-68.794456 1.0801194 30.612545 7
-68.346359 1.0686693 30.612398 7
-67.944778 1.0619495 30.640757 7
-67.472824 1.0447994 30.662254 7
-66.972404 1.0257432 30.619186 6.9375
-65.986084 1.0064087 30.623293 7
-65.381027 1.0740458 30.611719 7
-70.180199 1.1151859 30.637354 7
-70.087547 1.1127694 30.687408 7
-69.582184 1.1835227 30.696047 7
-66.88784 1.1238492 30.648239 7
-66.351715 1.1021745 30.682032 7
-65.838539 1.1017622 30.644388 7
-76.625595 1.2596849 30.641949 7
-75.441277 1.2529945 30.651157 7
-75.049477 1.2332093 30.686604 7
-70.059196 1.2432448 30.662878 7.5
-69.192764 1.2171546 30.614096 7.5
-78.738037 1.3459365 30.674442 7
-77.860001 1.3128613 30.622183 7
-76.918022 1.3757144 30.674976 7
-75.045311 1.3440757 30.629723 7.25
-84.482941 1.4892892 30.661802 6.8000002
-83.038338 1.4140882 30.665594 6.6666665
-80.02047 1.4640729 30.60586 7
-75.8815 1.4041485 30.695951 7.4285712
-85.876785 1.5546438 30.609419 7
-85.473763 1.5328515 30.634918 7
-84.356834 1.5079116 30.690258 7
-84.040726 1.5896084 30.646803 7
-81.321899 1.5212697 30.624386 7.125
-85.420349 1.6517708 30.669273 7
-84.969826 1.6389424 30.607063 7
-91.369759 1.7628551 30.616369 7
-91.937317 1.8107942 30.641577 7
-91.847847 1.8078938 30.687202 7
-96.924187 2.0249765 30.65029 7
-95.170898 2.0513823 30.660721 7
-95.601776 2.1254659 30.696812 7
-116.3619 2.8758471 30.610146 6.25
-114.0705 2.8854427 30.66543 7
-113.58634 2.874531 30.672852 7
-116.82859 2.9258711 30.600986 6.4444447
-116.4455 2.9429061 30.651642 7
-113.95234 2.9230258 30.607683 7
-113.63239 2.9358578 30.665464 7.2380958
-115.02541 3.0579879 30.689558 7.4000001
-113.57352 3.0218225 30.624174 7
-67.391273 0.99403238 30.740067 6.4666667
-66.91655 0.98571712 30.72716 6.5
-69.675591 1.0678083 30.755323 6.625
-69.255058 1.0879502 30.739258 7
-68.420082 1.0211517 30.705202 6.375
-68.386711 1.0742189 30.708677 7
-67.901581 1.0645019 30.759403 7
-67.824989 1.0624539 30.79998 7
-66.415558 1.0079721 30.72823 7
-70.927643 1.1428373 30.785591 7
-70.653084 1.134168 30.712761 7
-70.116241 1.1174684 30.772766 7
-69.680313 1.1016147 30.791935 7
-68.7845 1.1732121 30.735643 7
-67.306778 1.1365131 30.774746 7
-66.807442 1.1261539 30.748615 7
-77.444939 1.2995652 30.740171 7
-76.846169 1.277977 30.734756 7
-76.607147 1.2632792 30.742409 7
-76.578163 1.2628334 30.764721 7
-75.895355 1.2751713 30.733404 7
-75.030983 1.2337042 30.718439 7
-70.95488 1.2506979 30.752014 7.25
-70.516785 1.2590631 30.733646 7.5
-70.49102 1.2159849 30.755575 7
-69.215111 1.2297082 30.788509 7.5999999
-67.824982 1.2051334 30.794333 7.5588236
-77.455811 1.300372 30.746181 7
-76.583542 1.3756393 30.70089 7.25
-87.174065 1.5946205 30.791008 7
-86.781586 1.5976285 30.767878 7
-85.885254 1.560586 30.724792 7
-92.19146 1.7657347 30.723324 6.8000002
-87.244034 1.7169316 30.723459 7
-93.57412 1.8627687 30.739445 7
-93.480812 1.8597813 30.797571 7
-93.173424 1.8408535 30.766563 7
-92.764671 1.8190851 30.728195 7
-92.639137 1.8136107 30.774439 7
-96.05571 1.980569 30.778952 7
-94.380173 1.9950016 30.787041 7
-93.817047 1.9949784 30.720713 7
-93.475288 1.9847391 30.756277 7
-93.061722 1.9600164 30.743017 7
-92.148239 1.9181186 30.738737 7
-91.745216 1.931603 30.701317 7
-97.343803 2.0782495 30.711433 7
-94.709274 2.005723 30.762493 7
-96.348442 2.1175051 30.784679 7
-95.585052 2.1255243 30.725544 7
-113.10915 2.7394233 30.760885 7
-114.55115 2.8576908 30.774452 6.5
-113.67065 2.8123524 30.772638 7
-113.39591 2.8899541 30.755272 7.4166665
-116.51831 2.9468014 30.727942 7
-115.96854 2.9908023 30.738091 7
-115.29008 2.9065108 30.702084 6.4583335
-114.75633 2.9181206 30.798193 7
-113.63674 2.909682 30.768019 7
-116.81905 3.059783 30.707281 7
-116.77627 3.0582938 30.737934 7
-115.94901 3.0743649 30.76783 7
-113.57042 3.0227273 30.724066 7
8.1914711 -0.72687596 30.808495 7
-68.279861 1.0300161 30.874863 6.5
-67.340836 1.0462687 30.858702 7
-71.439301 1.1648747 30.8349 7
-70.935631 1.1438015 30.800589 7
-70.553551 1.1334529 30.812193 7
-68.68074 1.1761651 30.876877 7
-68.205376 1.1645669 30.863371 7
-67.286171 1.1381133 30.832916 7
-72.677361 1.2747135 30.898712 7
-71.88031 1.2647368 30.827921 7
-70.536919 1.2733362 30.845102 7.6363635
-86.336807 1.5777298 30.80097 7
-85.702049 1.5584921 30.894125 7
-86.779327 1.6012942 30.848755 7
-94.356972 1.871099 30.867388 7
-94.048157 1.8924379 30.818256 7
-93.908859 1.8863648 30.868145 7
-93.060158 1.8365769 30.822298 7
-95.681374 1.9615712 30.808453 7
-94.740677 1.9132526 30.838032 7
-94.348717 1.9954014 30.845768 7
-98.463799 2.0611625 30.851717 7
-98.012054 2.0631394 30.833055 7
-96.575775 2.0178728 30.809181 7
-95.934402 2.0956311 30.802004 7
-95.89695 2.0961483 30.897446 7
-94.755867 2.0399678 30.806574 7
-94.673805 2.0068886 30.86125 7
-93.920792 2.0121052 30.840612 7
-100.72968 2.1946106 30.884403 7
-100.54935 2.1840329 30.88443 7
-96.768997 2.1521599 30.867905 7
-96.681763 2.1440907 30.80595 7
-96.417191 2.1371152 30.892857 7
-96.367577 2.1353686 30.883839 7
-95.937195 2.1191816 30.813118 7.1999998
-95.898132 2.1033087 30.869942 7
-95.22406 2.1175761 30.833738 7
-99.97773 2.2869184 30.895388 7
-99.520981 2.2627447 30.874636 7
-99.108337 2.2384212 30.862864 7
-98.240463 2.2037342 30.840912 7
-116.55133 2.8931885 30.849834 6.3333335
-116.21159 2.9512396 30.877392 6.3636365
-116.09033 2.9967966 30.830933 7
-113.6308 2.9588897 30.800135 7.5
-113.38863 2.9041209 30.841764 7
-115.08983 3.0764725 30.823523 7.5833335
-114.77465 3.0091808 30.870712 7
-120.86276 3.1498642 30.890184 7
-120.38402 3.1059437 30.873554 7
-116.08791 3.1354601 30.839327 7.681818
-120.46524 3.2883666 30.818722 7
8.2038612 -0.72456878 30.955605 7
-68.296112 1.0801258 30.975374 7
-67.804779 1.0659382 30.918587 7
-72.636528 1.1879562 30.994713 7
-72.31192 1.1903666 30.918184 7
-72.289612 1.1923606 30.993622 7
-71.912979 1.1862941 30.977848 7
-69.670403 1.1072049 30.952354 7
-69.147537 1.1811799 30.974396 7
-68.719246 1.1798739 30.987629 7
-68.171295 1.1677932 30.978821 7
-67.719849 1.1567622 30.923727 7
-75.10524 1.2516841 30.995171 7
-72.227341 1.2753379 30.944675 7
-70.981903 1.2927178 30.906347 7.6999998
-69.610565 1.245628 30.962887 7.6216216
-69.167526 1.2306042 30.976618 7.5555553
-75.078308 1.373158 30.981939 7.25
-74.670975 1.3238592 30.95438 7
-72.654266 1.3205687 30.97106 7.5
-72.250763 1.3132088 30.907888 7.4444447
-71.877853 1.3203171 30.97196 7.6153846
-71.439552 1.305957 30.929693 7.647059
-77.388222 1.4138832 30.993774 7
-86.184555 1.5772763 30.975609 7
-84.831062 1.525678 30.916105 7
-88.521713 1.6458446 30.937456 7
-88.444298 1.6439588 30.995384 7
-88.077484 1.6453584 30.998455 7
-85.634415 1.6796056 30.936312 7
-89.318413 1.7215407 30.981857 7
-88.436516 1.7663445 30.928251 7
-87.600365 1.7400557 30.905872 7
-95.874763 1.976113 30.947285 7
-95.507133 1.9556916 30.935749 7
-97.22319 2.0807834 30.94508 7
-97.138725 2.0770059 30.973263 7
-97.020828 2.0708323 30.990633 7
-96.801865 2.0298412 30.986115 7
-101.1278 2.1763849 30.906412 7
-101.00513 2.1696391 30.923212 7
-100.15853 2.161957 30.939615 7
-99.814209 2.1554563 30.92285 7
-99.738358 2.1508622 30.925999 7
-99.30777 2.1280308 30.927391 7
-98.932106 2.1049466 30.920929 7
-97.543282 2.1763353 30.92626 7
-102.34541 2.2313864 30.990236 7
-101.85961 2.2236071 30.967358 7
-100.39418 2.2971432 30.92045 7
-98.650528 2.2003114 30.91695 7
-97.095459 2.2362871 30.902376 7.25
-101.74245 2.3372393 30.996956 7
-101.31153 2.3059006 30.942467 7
-101.26475 2.3046095 30.958399 7
-100.92447 2.3240256 30.917219 7
-100.85466 2.3217211 30.913288 7
-113.24606 2.7483408 30.968864 7
-114.85499 2.8687766 30.94079 6.4000001
-114.16522 2.8658166 30.939976 6.75
-113.16425 2.8399818 30.946074 7
-115.73891 2.9777987 30.960972 7
-113.37471 2.9577677 30.960039 7.5625
-116.5498 3.034163 30.955051 7
-116.23787 3.0037985 30.949715 7
-114.83248 3.0107467 30.92881 7
-116.2058 3.1349566 30.963732 7.6111112
-121.65253 3.2143486 30.967632 7
-120.44553 3.2896199 30.966452 7
-137.4144 3.4774745 30.997189 7
-14.079903 -0.80854678 31.075094 7
-21.268898 0.3677485 31.065769 7
-70.079826 1.0880619 31.004351 6.5714288
-73.086723 1.1994199 31.05669 7
-72.723434 1.1501253 31.087841 6.4615383
-71.480194 1.16229 31.065897 6.833333
-71.014694 1.1576195 31.061924 7
-70.522408 1.1417897 31.069084 7
-70.116936 1.1272628 31.029799 7
-69.198006 1.1841509 31.051115 7
-68.131966 1.1682867 31.008141 7
-77.132347 1.2990327 31.074564 7
-76.244202 1.2573249 31.024784 7
-76.17662 1.2569319 31.097157 7
-75.520676 1.2710063 31.064814 7
-75.088387 1.2514066 31.00824 7
-74.679329 1.228497 31.002794 7
-74.238091 1.2319907 31.080572 7
-74.188309 1.2296212 31.083214 7
-73.721848 1.2209281 31.049608 7
-73.441223 1.2237891 31.076323 7
-73.003716 1.287833 31.074829 7
-70.948784 1.2884347 31.076279 7.5999999
-76.611755 1.3816133 31.053726 7
-76.160728 1.394186 31.016357 7.4000001
-75.477356 1.3673081 31.013311 7
-75.035507 1.3487691 31.010941 7
-74.588654 1.3244789 31.021204 7
-74.115303 1.3240148 31.034176 7
-73.718422 1.3193007 31.064241 7
-73.386154 1.3142409 31.048592 7
-86.152023 1.580319 31.083286 7
-88.446945 1.6447831 31.010263 7
-87.633224 1.625553 31.025936 7
-86.616249 1.6031314 31.088583 7
-89.288071 1.7213421 31.018194 7
-88.01503 1.7661078 31.047649 7
-86.631836 1.7510169 31.028957 7.25
-98.411957 2.064312 31.00655 7
-97.965408 2.0701699 31.078758 7
-97.59166 2.0519965 31.02632 7
-97.487198 2.0478566 31.083317 7
-96.687492 2.0236614 31.018017 7
-96.283836 2.0081024 31.002737 7
-95.840111 2.0967631 31.029657 7
-99.777542 2.1599374 31.095388 7
-99.333282 2.1340742 31.043997 7
-98.25647 2.1902375 31.080912 7
-97.826958 2.1950688 31.094929 7
-102.61528 2.2725835 31.081591 7
-102.23935 2.225955 31.021587 7
-101.40195 2.2035618 31.068104 7
-98.733315 2.2298291 31.09741 7
-101.63938 2.3345151 31.035032 7
-100.79259 2.3211524 31.001984 7
-114.2527 2.8937254 31.00926 7
-113.14638 2.8379312 31.05344 7
-112.47986 2.8493166 31.035751 7
-112.26453 2.8693988 31.075729 7
-115.87051 2.9750271 31.058609 6.9000001
-115.45425 2.9495585 31.08202 7
-116.30231 3.006202 31.088614 7
-116.21049 3.087348 31.098469 7
-115.71188 3.0621386 31.011724 7
-114.88661 3.0128629 31.079586 7
-120.86742 3.154675 31.068083 7
-120.36631 3.1098018 31.069929 7
-115.72566 3.1051221 31.014622 7.5
-119.49154 3.2383873 31.067465 7
-137.34641 3.4751775 31.098492 7
-22.249043 0.38762724 31.139744 7
-74.720726 1.1921601 31.1346 6.5333333
-73.840393 1.1780707 31.128744 6.4444447
-72.720085 1.1972709 31.129763 7
-71.406677 1.1750984 31.14135 7
-70.940086 1.1561379 31.115698 7
-70.041962 1.1274796 31.134171 7
-69.704262 1.1145519 31.108624 7
-69.544365 1.1959606 31.132532 7
-69.255241 1.101595 31.105587 7
-69.092316 1.1853644 31.132542 7
-76.653625 1.2455323 31.18816 6.5714288
-76.194656 1.2588909 31.122231 7
-75.562035 1.2774383 31.171976 7
-73.447449 1.2265602 31.136478 7
-73.049377 1.2007337 31.135019 7
-70.452194 1.2656984 31.166317 7.4444447
-69.977837 1.2107985 31.104507 7
-78.380043 1.3482333 31.125305 7
-77.915657 1.3141594 31.147984 7
-77.544533 1.319084 31.110703 7
-76.555618 1.3834637 31.143007 7
-73.762436 1.3213899 31.10965 7
-71.866379 1.3260417 31.163897 7.625
-71.395882 1.3108664 31.104116 7.65625
-79.121857 1.4714332 31.173424 7
-78.722801 1.4564595 31.110756 7
-77.986 1.4195324 31.144758 7
-77.43692 1.4410486 31.123913 7.2142859
-79.565796 1.5099113 31.184759 7.3333335
-88.864014 1.6712584 31.180859 7
-88.456238 1.6508108 31.132683 7
-88.055107 1.649291 31.113905 7
-89.337662 1.7300701 31.152786 7
-87.539818 1.7648708 31.123989 7.1666665
-87.004486 1.7211552 31.110004 7
-86.966705 1.72061 31.127293 7
-90.154488 1.8763635 31.189835 7
-96.762184 2.0623131 31.161282 7
-100.99382 2.1792049 31.181116 7
-100.60668 2.1960824 31.114265 7
-100.19518 2.1713707 31.12409 7
-99.761642 2.159306 31.104837 7
-99.636749 2.1527886 31.139812 7
-99.184425 2.1273336 31.116043 7
-103.18639 2.298177 31.114422 7
-100.03088 2.2881603 31.147442 7
-98.683586 2.2294321 31.164673 7
-105.66345 2.3647375 31.151293 7
-103.82905 2.33144 31.191029 7
-101.7152 2.3489008 31.193092 7
-101.36985 2.3278594 31.149258 7
-100.42665 2.3118026 31.125227 7
-106.42874 2.4541185 31.190052 7
-104.12556 2.4600384 31.190155 7
-103.68594 2.4284763 31.192741 7
-103.29434 2.4195642 31.152962 7
-106.23226 2.5806746 31.176821 7
-106.19541 2.5794687 31.187363 7
-105.53404 2.5026801 31.185884 7
-105.52544 2.6114368 31.127552 7
-112.37766 2.7452331 31.103161 7
-112.06819 2.7600317 31.150164 7
-104.89863 2.7233784 31.198519 7
-112.50445 2.8518157 31.128819 7
-112.22798 2.8778212 31.168293 7.083333
-116.00019 2.9561095 31.18812 6.6111112
-115.43335 2.9481504 31.149672 7
-114.91066 2.9243603 31.138222 7
-116.28696 3.089885 31.119303 7
-115.50184 3.0768089 31.162266 7.5
-114.26577 3.0260484 31.10881 7.4285712
-120.84737 3.1550324 31.108055 7
-120.43645 3.1146681 31.180727 7
-119.37286 3.1006825 31.160105 7
-116.27002 3.1315913 31.12178 7.5
-121.13471 3.2363093 31.121105 7
-120.3306 3.2850006 31.147158 7
-121.66955 3.4086728 31.101929 7
8.2159672 -0.71936256 31.248478 7
-24.652281 0.41671789 31.285053 7
-73.843758 1.1975374 31.246735 6.5999999
-71.858009 1.1935759 31.231993 7
-71.361488 1.1778047 31.272919 7
-70.960922 1.1611145 31.223314 7
-70.508713 1.1460987 31.203693 7
-77.974136 1.2848853 31.283106 6.625
-76.658447 1.290946 31.249277 7
-76.227646 1.264842 31.225819 7
-74.721001 1.2406915 31.252209 7
-73.513 1.233961 31.239391 7
-73.092667 1.2060332 31.21698 7
-72.66478 1.2003844 31.277399 7
-72.262161 1.2013353 31.256367 7
-71.797264 1.2775756 31.297485 7
-71.326035 1.2596607 31.240904 7
-70.872269 1.2423861 31.236679 7
-70.415039 1.2293501 31.238201 7
-80.081848 1.3936522 31.219027 7
-79.626411 1.3649621 31.212795 7
-79.208649 1.3430045 31.295698 6.75
-78.768463 1.3568 31.287304 7
-78.329681 1.3503838 31.23517 7
-77.891602 1.3176922 31.260513 7
-77.505394 1.3036335 31.263058 6.8000002
-77.108994 1.3064921 31.276009 7
-75.524086 1.3743231 31.21773 7
-72.236694 1.3355144 31.221872 7.6129031
-80.504669 1.4042172 31.281904 7
-79.53511 1.4740322 31.244686 7
-79.083427 1.4734133 31.257463 7
-77.798218 1.4180896 31.203047 7
-88.431099 1.6532055 31.219889 7
-89.764267 1.7230309 31.250578 7
-89.315376 1.733722 31.268867 7
-87.888756 1.7677748 31.229355 7
-87.481674 1.7462367 31.23155 7
-91.072983 1.8980006 31.242434 7
-90.652382 1.8785655 31.280037 7
-94.633301 1.9232986 31.247087 7
-93.183037 1.9873564 31.255028 7
-104.51383 2.0883579 31.217873 6
-104.41653 2.0290473 31.213104 5.5999999
-98.006989 2.0503643 31.297752 7
-104.39532 2.191246 31.214407 7
-100.83879 2.1518412 31.246666 6.833333
-99.407387 2.1435184 31.279034 7
-96.447144 2.1477261 31.270691 7
-95.752762 2.1050768 31.207336 7
-101.69064 2.225769 31.280003 7
-101.40514 2.2100368 31.234005 7
-103.42435 2.3012633 31.212242 7
-102.17912 2.3520081 31.22855 7
-101.26376 2.3261838 31.240963 7
-106.71603 2.4917617 31.267179 7
-105.81503 2.4884977 31.221497 7
-104.08013 2.4593716 31.250111 7
-103.67302 2.4287016 31.234001 7
-102.56967 2.4373529 31.249781 7.3333335
-112.72983 2.6461101 31.215242 6.3809524
-112.1427 2.6580086 31.26289 7
-107.79612 2.6254499 31.293877 7
-104.84703 2.6851847 31.269953 7
-112.21543 2.7949743 31.219929 7
-111.9679 2.754874 31.214752 7
-112.54752 2.8548958 31.218803 7
-115.69311 2.9598327 31.245674 7
-113.86272 2.9417329 31.293415 7.291667
-113.59034 2.9093523 31.297541 7
-115.62236 3.0876405 31.244085 7.5999999
-115.20399 3.0685449 31.269653 7.5714288
-115.18518 3.0209172 31.246532 7
-120.38619 3.1141076 31.233349 7
-119.39605 3.1039276 31.287722 7
-118.53793 3.158812 31.292358 7
-115.97046 3.1228604 31.203276 7.6315789
-135.17657 3.4146574 31.287271 7
-121.6796 3.4083974 31.208664 7
-121.17058 3.4055429 31.244175 7
-15.072845 -0.76494288 31.371922 7
-24.706285 0.41769552 31.356955 7
-24.698792 0.41779113 31.367147 7
-74.700478 1.1911521 31.306652 6.4615383
-72.566414 1.197696 31.329744 7
-71.829025 1.1973544 31.369387 7
-76.204346 1.2667778 31.302452 7
-76.145294 1.2418355 31.371342 6.75
-75.553345 1.2838342 31.341753 7
-75.031128 1.2629498 31.353884 7
-74.617439 1.2399861 31.365473 7
-74.247086 1.2274081 31.343746 6.833333
-73.834908 1.2377191 31.331045 7
-72.210472 1.2038535 31.388035 7
-72.163399 1.2861919 31.333057 7
-72.064186 1.2864535 31.382229 7
-80.90229 1.3694141 31.345102 6.6666665
-79.652939 1.3722128 31.347242 7
-79.206741 1.3728403 31.366076 7
-78.37796 1.3569856 31.334259 7
-77.522743 1.3285524 31.359507 7
-77.10202 1.3087984 31.339144 7
-74.552826 1.3349247 31.375824 7
-74.115623 1.3355426 31.396074 7
-72.560371 1.3241177 31.339973 7.4285712
-81.795853 1.4443406 31.388525 7
-81.348763 1.4032363 31.36714 6.6666665
-80.875336 1.4074745 31.378735 7
-80.512085 1.4056557 31.306026 7
-80.447212 1.4059224 31.391508 7
-83.110191 1.5931106 31.356131 7
-82.738045 1.5863502 31.396645 7
-82.160217 1.5566827 31.36697 7
-81.74221 1.5568839 31.367132 7
-81.256531 1.553623 31.385452 7
-80.383614 1.5367877 31.313564 7.1999998
-80.008148 1.5065883 31.350117 7
-90.681892 1.7601047 31.379578 7
-89.745087 1.7257891 31.342611 7
-88.237488 1.7714337 31.315243 7
-91.892563 1.8031864 31.3869 7
-92.335373 1.9439217 31.331873 7
-91.460358 1.9413028 31.393713 7
-91.060501 1.9008472 31.363445 7
-104.42596 2.0424659 31.339649 5.6190476
-98.436455 2.0895307 31.33593 7
-96.788322 2.0725203 31.388657 7
-94.146172 2.0016961 31.348557 7
-97.999466 2.1887109 31.39776 7
-97.540398 2.1911981 31.34387 7
-95.772797 2.1084771 31.33849 7
-102.63164 2.2835405 31.359179 7
-102.2661 2.2387445 31.31279 7
-99.344223 2.2729211 31.304358 7
-102.10719 2.3510265 31.307827 7
-100.21396 2.3094714 31.354263 7
-107.13878 2.4742739 31.374279 7
-105.92613 2.4546123 31.322004 7
-105.47501 2.4783616 31.356413 7
-104.05137 2.460731 31.395641 7
-103.77039 2.4503663 31.365278 7
-102.90615 2.4100609 31.355629 7
-109.22445 2.594532 31.377827 7
-108.4527 2.5532911 31.397667 7
-108.08974 2.5503409 31.359434 7
-107.70633 2.5138912 31.324974 7
-107.69485 2.5136981 31.341139 7
-107.56543 2.5058546 31.362589 7
-107.37302 2.5968697 31.382082 7
-106.56877 2.5844526 31.349691 7.0625
-106.15787 2.5808868 31.368792 7
-105.16304 2.508872 31.331333 7
-111.28671 2.6950309 31.366018 7
-108.20013 2.6619351 31.375235 7
-106.96537 2.6189656 31.3351 7
-105.06863 2.6287835 31.329128 7
-112.1154 2.7894185 31.331352 7
-111.78978 2.7341919 31.315374 7
-115.35117 2.8927655 31.329212 6.3333335
-114.02892 2.8322554 31.374321 7
-113.99799 2.8306923 31.319233 7
-113.34509 2.8434601 31.362921 7
-112.61741 2.8046329 31.363474 7
-112.58234 2.8578124 31.312239 7
-112.26707 2.8487561 31.368835 7
-112.00314 2.8656819 31.362955 7
-111.71309 2.8295193 31.353165 7
-104.45065 2.822819 31.374413 8
-116.06756 2.9696827 31.325836 6.75
-115.73627 2.9613957 31.305706 7
-113.64949 2.9690692 31.341629 7.6399999
-118.16551 3.0450592 31.376783 6
-115.34786 3.0776727 31.39115 7.6410255
-119.47421 3.1090629 31.380659 7
-116.02266 3.1055951 31.342541 7.375
-121.16328 3.2354579 31.329565 7
-134.50766 3.3954718 31.384052 7
-121.66526 3.4062152 31.314909 7
-25.704987 0.41936502 31.401779 7
-25.692932 0.41950426 31.412504 7
-73.827736 1.1921275 31.41889 6.4615383
-73.069664 1.1754947 31.425339 6.5714288
-77.492401 1.2929767 31.414827 6.6363635
-76.620361 1.2638203 31.422153 6.6666665
-76.596664 1.2944692 31.410114 7
-76.123405 1.2697591 31.481014 7
-75.489487 1.2416481 31.416252 6.5714288
-75.010994 1.2658055 31.44982 7
-74.649925 1.244782 31.447008 7
-73.443352 1.2017835 31.429182 6.5999999
-73.056671 1.2126882 31.436674 7
-72.586456 1.2021861 31.423765 7
-72.474739 1.2883558 31.440563 7
-79.20742 1.3758777 31.437298 7
-77.953682 1.3276111 31.423901 7
-77.056374 1.3098744 31.420294 7
-76.9235 1.3056432 31.480862 7
-76.483292 1.3920412 31.443253 7
-74.94973 1.3621489 31.460712 7
-74.525436 1.3375851 31.471264 7
-73.357857 1.3250617 31.401644 7
-83.581184 1.4642668 31.485279 6.833333
-83.14592 1.480273 31.458141 7
-82.684196 1.4304686 31.435591 6.6666665
-82.250359 1.4465156 31.445547 7
-81.346268 1.4457508 31.466854 7
-80.891899 1.4092529 31.400446 7
-77.347763 1.4295752 31.497196 7
-76.939484 1.4078541 31.456615 7
-75.418961 1.413367 31.469894 7.3333335
-83.037399 1.5932107 31.41124 7
-82.163582 1.5978758 31.438583 7.3333335
-80.009308 1.5238485 31.453243 7.125
-88.777084 1.6484675 31.45738 6.75
-90.152 1.7605371 31.479107 7
-89.187607 1.7356312 31.494917 7
-88.721764 1.7968203 31.440008 7
-93.27211 1.8767726 31.499105 7
-92.821022 1.8495153 31.452377 7
-92.4189 1.8304713 31.46994 7
-89.593079 1.8476963 31.47533 7
-89.179482 1.8569289 31.415693 7
-94.621696 1.9296408 31.425091 7
-104.40257 2.0333412 31.47331 5.4736843
-104.33551 2.0852017 31.494305 6
-96.765671 2.0747876 31.484884 7
-96.150154 2.017163 31.454966 7
-94.560493 2.0680633 31.465063 7.1666665
-99.343925 2.144501 31.414494 7
-98.911758 2.1010497 31.484249 6.8333335
-97.146759 2.1742101 31.411865 7
-94.998024 2.125555 31.497576 7
-104.3148 2.2230554 31.44117 7
-102.51288 2.2773564 31.400114 7
-102.4938 2.2764006 31.407888 7
-101.4994 2.219789 31.419296 7
-105.47902 2.351465 31.43549 6.9000001
-103.84544 2.3426161 31.46851 7
-103.43486 2.310595 31.449099 7
-103.28842 2.3027568 31.489723 7
-102.44905 2.3953457 31.406813 7
-107.13161 2.4773202 31.479458 7
-105.75964 2.4487593 31.467291 7
-105.40846 2.4774983 31.438505 7
-105.38862 2.4770947 31.45504 7
-104.04758 2.4610541 31.422859 7
-102.83733 2.4437466 31.451338 7.2857141
-109.1496 2.5733335 31.434629 6.833333
-108.74323 2.5589502 31.442776 7
-108.33631 2.5475354 31.461624 7
-106.54417 2.5780227 31.451847 7
-106.25065 2.5671003 31.411831 7
-113.29899 2.6907196 31.415983 6.4000001
-112.26834 2.6948507 31.498055 6.5
-111.17406 2.6885629 31.421843 7
-110.853 2.6815724 31.436632 7
-110.34615 2.6506598 31.463425 7
-109.00569 2.6774337 31.420069 7
-108.16905 2.6620312 31.479864 7
-106.66267 2.6099346 31.430765 7
-106.59799 2.6086936 31.491068 7
-104.4614 2.658489 31.477129 7
-113.29199 2.7468002 31.431263 7
-112.06712 2.7675791 31.437834 7
-111.47321 2.7194202 31.444336 7
-110.1449 2.7487364 31.432426 7
-109.78178 2.7305775 31.476694 7
-104.49339 2.707267 31.406645 7
-112.26117 2.8507791 31.477949 7
-112.03258 2.8484778 31.491861 7
-110.80801 2.8243737 31.473391 7.5
-104.42056 2.8217893 31.428905 8
-115.78988 2.9136889 31.414301 6.4000001
-115.45621 2.9278374 31.451672 6.7142859
-113.99228 2.9762979 31.406893 7.6333332
-113.73525 2.9655297 31.496145 7.5806451
-115.72648 3.0988472 31.440195 7.6666665
-121.20934 3.2357888 31.480978 7
-121.19695 3.2352908 31.479713 7
-120.41066 3.2894585 31.416231 7
-119.42429 3.238445 31.434223 7
-118.53239 3.2037098 31.418407 7.5384617
-134.39171 3.3919153 31.436153 7
-121.21122 3.4073269 31.413994 7
-77.931633 1.2993239 31.520042 6.6923075
-76.542183 1.2623557 31.517302 6.6666665
-75.457314 1.2860374 31.520321 7
-73.774696 1.2412488 31.500742 7
-73.391235 1.2397217 31.541149 7
-73.01712 1.2149261 31.548603 7
-80.048882 1.3642516 31.576843 6.5999999
-79.582474 1.3773075 31.552729 7
-79.157272 1.3773348 31.534502 7
-78.70433 1.3278363 31.526283 6.6666665
-78.304649 1.3601487 31.50054 7
-77.414848 1.3319989 31.576687 7
-76.990944 1.3103782 31.513147 7
-76.414223 1.3953431 31.574118 7
-73.717636 1.3332051 31.502193 7
-83.120285 1.4818833 31.528509 7
-81.77005 1.447685 31.500666 7
-80.472206 1.4160285 31.598597 7
-80.048019 1.4057014 31.53738 7
-79.491425 1.4849516 31.594469 7
-79.050529 1.4830604 31.567875 7
-77.857857 1.4290025 31.508137 7
-77.364548 1.4712992 31.509041 7.4000001
-76.922134 1.4109631 31.555626 7
-76.498047 1.4346755 31.509172 7.4000001
-84.02137 1.5279107 31.522121 7
-88.670898 1.6730744 31.500134 7
-84.903519 1.6637881 31.508562 7
-84.407898 1.6538973 31.56134 7
-91.082024 1.7864147 31.542665 7
-92.417702 1.8339164 31.55377 7
-91.956329 1.813288 31.52993 7
-91.505974 1.8279581 31.595722 7
-90.551308 1.8828238 31.520882 7
-95.780952 1.9927262 31.527601 7
-95.614792 1.9846048 31.594574 7
-93.743637 1.9046909 31.551483 7
-96.638519 2.0703311 31.569447 7
-95.02095 2.0098448 31.571505 7
-94.136131 2.0060437 31.520824 7
-100.24762 2.1898994 31.537548 7
-99.807976 2.1626899 31.563944 7
-99.358597 2.1500356 31.539459 7
-98.912949 2.1253054 31.54027 7
-98.494545 2.1000299 31.52306 7
-97.979393 2.1905091 31.503853 7
-97.523972 2.1964788 31.59968 7
-97.134201 2.1764691 31.524641 7
-95.378487 2.1117706 31.539425 7.1666665
-100.63939 2.2958376 31.547766 7
-98.438965 2.2289174 31.541042 7
-96.689552 2.2044344 31.510359 7
-103.7394 2.3373966 31.513329 7
-101.98428 2.350759 31.520935 7
-99.74588 2.3070786 31.515675 7.1666665
-107.12318 2.480484 31.592342 7
-108.31611 2.5488062 31.542532 7
-107.96872 2.5492857 31.583351 7
-106.16978 2.5653868 31.501539 7
-105.75417 2.5690126 31.526979 7
-110.90378 2.6508665 31.542025 6.6363635
-110.57399 2.6619308 31.514915 7
-110.2432 2.6453059 31.517008 7
-109.52683 2.6156926 31.590773 7
-108.99326 2.6787708 31.549189 7
-108.5755 2.6660163 31.521925 7
-108.15042 2.662755 31.590315 7
-107.41526 2.615788 31.588881 7
-106.93006 2.6211298 31.55397 7
-106.52879 2.6077292 31.574791 7
-111.97311 2.7419028 31.517715 6.8000002
-111.15034 2.7975082 31.544281 7
-110.80537 2.7764928 31.550444 7
-110.15109 2.750423 31.534594 7
-109.77012 2.7311561 31.54388 7
-109.38056 2.7113044 31.598766 7
-109.0801 2.7001858 31.596058 7
-104.43275 2.7054167 31.505386 7
-112.03552 2.8487453 31.501247 7
-111.94682 2.8673129 31.538439 7
-111.76482 2.8627284 31.552952 7.3000002
-115.45203 2.9490726 31.568153 7
-114.68345 2.9115872 31.568336 7
-114.05956 2.9736743 31.556969 7.5862069
-115.74934 3.0464437 31.599781 7
-115.41198 3.0459042 31.573059 7.1999998
-114.68265 3.0457954 31.55208 7.5999999
